 -0.294434 -0.0850218 0.00742595 0.0239545 -0.306517  0.951564
0.0525053 -0.590367 -0.332374  0.51301 0.134685  0.84775
-0.411998  -0.20433 -0.498289  -0.973226 -0.0675434   0.219701
 -0.18138  0.109377 0.0652544 -0.904379  0.232078  0.358104
 -0.256938   0.106572 -0.0439519 -0.0822873   0.158159   0.983979
 -0.384579  0.0503569 -0.0944092 -0.788927 0.0182035  0.614217
 0.112393  0.598319 -0.710712   0.57667  0.560731 -0.594165
 0.308763 0.0138515 -0.595274  0.545864  0.761893 -0.348642
0.0591423 -0.496044 -0.693585   0.23381 -0.638578 -0.733179
-0.182046 -0.255364 -0.795449  0.243723 0.0265721 -0.969481
-0.161581 -0.967482 -0.455869 -0.138148 -0.984563 -0.107478
-0.0619872    0.69876  -0.452711  0.221962  0.974911 0.0167481
-0.430906 -0.110702 -0.705265 -0.735036 -0.451223 -0.506083
-0.477534 0.0490189 -0.204946 -0.935862  0.155697  0.316103
-0.0858832  -0.226699  0.0676093  0.156996 -0.502363  0.850285
-0.553185  0.395967 -0.686291 -0.964336 0.0824187 -0.251521
-0.370759  0.563326 -0.787452 -0.489367  0.621186 -0.612085
-0.482245  0.474585 -0.293241 -0.789718  0.470232  0.393989
-0.00637497   -0.927277   -0.554513  0.479636 -0.295301 -0.826285
-0.136155  0.155862  0.050629 0.350195 0.876045 0.331524
0.0992005  0.589463 -0.733178  0.583697  0.630166 -0.512044
 0.309714  0.232966 -0.678177   0.989995  -0.128746 -0.0577472
 0.103833 -0.387754 -0.250118  0.717776 -0.628745 -0.299127
-0.0671453  -0.181869  0.0971398 0.152344 0.198836  0.96812
0.0217827  0.602431 -0.790845  0.498446  0.561257 -0.660713
-0.284455 -0.160365 0.0132443 -0.764719  0.322238  0.558003
 0.170026 -0.512753 -0.516917   0.998804 -0.0416918  0.0255539
-0.0640292  -0.874956  -0.273127 -0.0970608  -0.633413   0.767703
0.0898066 -0.618889  -0.35463 0.687222  0.18233 0.703194
-0.201239  0.699956 -0.585668 -0.129192  0.982546 -0.133839
-0.309334  0.420362 -0.061819 -0.364173  0.351467  0.862467
-0.305326  0.535042 -0.124067 -0.478991  0.651162   0.58869
 -0.577465 -0.0899626  -0.550769  -0.89007 -0.237788  0.388887
 0.131864 -0.341619 -0.256174  0.887967  -0.45264 0.0814363
 0.269479  0.127052 -0.385888  0.936357 -0.287006  0.202146
-0.120559 -0.769502 -0.585248  0.119335 0.0762262 -0.989924
 0.225037  0.506919 -0.453769 0.678934 0.682038 0.271797
-0.555129 -0.124315 -0.567065 -0.138036 -0.688005 -0.712457
-0.423155   0.60463 -0.566791  -0.613058    0.78759 -0.0621392
 0.146316  0.226606 -0.107035   0.893238 -0.0472882   0.447089
 0.0972425   0.231233 -0.0629641 0.598949  0.26604 0.755303
-0.525022 -0.166441 -0.483602 -0.799286  -0.31234  0.513406
-0.218592  0.624106 -0.799699 -0.203403  0.817442 -0.538903
-0.107743 -0.456476 0.0473999 -0.149182 -0.764028  0.627699
-0.180337  0.122591 0.0602508 -0.930418  0.265553  0.252594
 -0.278426  -0.116373 -0.0170489 -0.65925 0.555333 0.506946
-0.249374  -0.48011 -0.258358 -0.480865 -0.249402  0.840576
 0.101737  0.101846 -0.104397 0.785283 0.160367 0.598008
 0.286795  0.279384 -0.390172 0.882191 0.142265 0.448888
-0.390733 -0.156427  -0.70757 -0.608094 -0.730399 -0.311028
-0.249242 -0.279766 0.0329797 -0.672006 -0.267764  0.690443
-0.503632 0.0721028 -0.293863 -0.941388  0.118691  0.315756
 -0.180437   0.382415 -0.0286027 0.0613778  0.251866  0.965814
  0.23511 0.0732317 -0.325302  0.916617 -0.180217   0.35684
 0.123521 -0.189317 -0.642122  0.610273 -0.646376 -0.458001
  0.16243  0.146083 -0.867173  0.673107 -0.171369 -0.719416
 -0.290724 0.00942265 -0.0213671 -0.300125   0.13279  0.944612
 -0.478264 -0.0958659   -0.35511  -0.987037 -0.0372459   0.156113
 0.218554  0.290682 -0.800242  0.744647 0.0866867 -0.661806
 0.117844 -0.313498 -0.583721  0.901446  0.114246 -0.417543
0.0485346 -0.614692 -0.598498  0.741529 -0.435707  -0.51019
 -0.30998 -0.790987 -0.453967 -0.899653 -0.210795 -0.382349
 0.169425  0.172725 -0.168494    0.947619 -0.00340087    0.319385
-0.152655 -0.608033 -0.257169 -0.142609 -0.291407  0.945909
-0.449374  0.267551 -0.163625  -0.883946 -0.0492951   0.464983
 0.276656  0.222813 -0.381931    0.960504 -0.00987278    0.278092
-0.412048  -0.19576 -0.504621 -0.917014 -0.371756  0.144508
 -0.321146 -0.0258353 -0.0315325 -0.562568  0.376085  0.736259
0.289952 0.142275 -0.59124  0.926361 -0.351971 -0.134058
  0.17616  0.426665 -0.783299  0.578577  0.447114 -0.682156
-0.109027 -0.472821 0.0429268 -0.00300625   -0.999985  0.00453916
-0.0630526   0.577635  -0.148784 0.118235 0.769139 0.628049
-0.102294  0.344946 -0.955199 0.113386 0.332311 -0.93633
 0.134064  0.594133 -0.345043  0.732449  0.674165 0.0949756
 -0.489792 -0.0186068  -0.294768 -0.935942 -0.339051 0.0951688
-0.348654  0.131023 -0.945829 -0.296604  -0.31052 -0.903108
  -0.31513   0.057977 -0.0441441 -0.504221  0.253911  0.825404
 -0.54705 0.0488387 -0.469677 -0.534604  0.481785  0.694322
0.00206512   0.679696  -0.526316   0.316147   0.948616 -0.0133514
 0.251292   0.18545 -0.327097   0.870516 -0.0394189   0.490559
 -0.457733 0.00681711  -0.157391  -0.889143 -0.0503625    0.45485
 -0.56835  0.367443 -0.437152 -0.942666 0.0665754   0.32703
-0.0930377  -0.844872  -0.260552 -0.0629348   -0.38028   0.922728
-0.0290287   0.683718  -0.619076   0.278849   0.956159 -0.0894656
-0.556927  0.318544 -0.709881 -0.979531 0.0462138 -0.195919
-0.350431 -0.240694 -0.654553 -0.812305 -0.011147 -0.583127
 -0.217389   0.156923 -0.0424533 -0.706187  0.319458   0.63186
-0.502616  0.323119 -0.266856 -0.863489  0.159381  0.478523
  0.0811068 -0.00489084     -0.8714  0.626575 -0.335186 -0.703601
 0.0775735  -0.400048 -0.0736357  0.797514 -0.467809  0.380954
 0.121408 -0.423708 -0.650794 0.879359 0.303136  -0.3672
-0.615626 0.0286945 -0.578868 -0.93569 0.308686  0.17087
-0.356677 -0.457129 -0.356032  -0.791617 -0.0504682    0.60893
 -0.308408   0.370719 -0.0469334 -0.390869  0.248497  0.886268
 0.174732  0.249908 -0.167619    0.826908 0.000657842    0.562336
 0.263043  0.144182 -0.354666    0.936257 -0.00324596    0.351301
-0.182552  -0.42978 0.0765376 -0.241827 -0.645974  0.724042
 -0.336676  -0.209593 -0.0450316 -0.768411 0.0329754  0.639106
-0.458701  0.150731 -0.192885 -0.913425 -0.139954  0.382189
-0.315002  0.588713 -0.799223 -0.361162  0.734931 -0.573967
-0.238443 -0.570519 -0.661579 -0.157476 -0.564758 -0.810092
-0.189649 -0.350298 0.0753714 -0.272174  0.460868  0.844703
 0.289302  0.415883 -0.666768  0.800537  0.314109 -0.510369
 -0.16705   -0.5818 -0.642871   0.11675 -0.521302 -0.845349
-0.0287511  -0.313745  0.0443506   0.57408 -0.156847  0.803636
-0.123566 -0.964097 -0.406754 -0.000791392    -0.980127      0.19837
-0.0825782   0.642831   -0.77854  0.142559  0.875602 -0.461518
  0.129474 -0.0553447 -0.0713885    0.829684 -0.00561391    0.558205
 0.109238  0.535628 -0.195398 0.584636 0.570868 0.576464
 -0.347112   0.308121 -0.0401187 -0.618909  0.153488   0.77032
0.0412314 -0.684447  -0.30841 0.492876 0.182661 0.850711
 -0.527409 -0.0676149  -0.582609  0.264461 -0.506783 -0.820507
0.0642728 -0.421855 -0.250827  0.614949 -0.753915 -0.231192
-0.134593    0.4887 -0.907161 0.0137633  0.409976 -0.911992
-0.400455 -0.351849 -0.586332 -0.871537  0.268901 -0.410018
0.0480959  0.292993 -0.922465  0.406742  0.305106 -0.861087
-0.217677 -0.914152 -0.545317 -0.546057 -0.723465 -0.422398
 0.303388  0.400353 -0.600751   0.993153  0.0913104 -0.0728723
 0.221299 0.0843584 -0.770024  0.837738 -0.398802 -0.373031
-0.544725  0.313292 -0.350174 -0.952766 0.0906103  0.289872
 0.0625387  -0.282364 -0.0174319  0.89822 0.175635  0.40293
-0.300262 -0.694095 -0.551697 -0.873678  -0.32132 -0.365295
-0.0960394   0.702326  -0.561377   0.109764     0.9938 -0.0177028
-0.392608 -0.161525 -0.696328 -0.626115  -0.75127 -0.208742
-0.343428 -0.720026 -0.343033  -0.680529 0.00242527   0.732717
 -0.318205   0.466762 -0.0816529 -0.321996  0.556129  0.766184
-0.526505  0.143752 -0.337473 -0.920011  -0.24325  0.307262
-0.496606 0.0656039 -0.269968 -0.937743  0.149825  0.313355
  0.099216  0.0265866 -0.0683929  0.51033 0.475839 0.716338
  0.20055  0.548059 -0.651934  0.64466 0.720962 -0.25422
-0.256498 -0.531143 -0.286219 -0.672223 -0.325398  0.665006
 0.0364349     0.3448 -0.0486192 0.293054  0.27063 0.916994
-0.290662 0.0549718 -0.938725 -0.296604  -0.31052 -0.903108
 0.153515   0.38455 -0.824031  0.426758  0.450926 -0.783928
-0.236262  -0.85202 -0.289093 -0.278998 -0.126223   0.95196
0.00166575  -0.950673   -0.45926  0.386614 -0.914136  0.122002
 0.184068   0.54136 -0.377831 0.808884  0.57676 0.114255
 0.159002  0.136358 -0.148982  0.864967 -0.277925  0.417841
 -0.466839 -0.0986944  -0.656446 -0.849844 -0.511199  -0.12822
-0.271178 -0.254357 0.0214832 -0.672006 -0.267764  0.690443
 0.293834  0.279465 -0.404031 0.882191 0.142265 0.448888
-0.128546 -0.289954 -0.802932 0.0498666  0.247517   -0.9676
-0.428624  0.351214 -0.143778  -0.872457 -0.0214287    0.48822
 0.291596   0.40918 -0.456368 0.894327 0.283432 0.346188
 0.100313  0.457234 -0.836128  0.570084  0.328685 -0.752975
-0.334748 -0.384751 -0.739059 -0.701447  0.223787 -0.676677
 0.156457 -0.100847 -0.128209  0.882014 -0.166277  0.440912
 0.289168  0.390064 -0.671755  0.926507 0.0320923 -0.374906
-0.379455 -0.439098 -0.384149  -0.791617 -0.0504682    0.60893
-0.234645 -0.207858 -0.799143 -0.370179 -0.782677 -0.500384
-0.0694088   0.093056 -0.0243757 0.772404 0.273859 0.573057
-0.368146 -0.402944 -0.159247 -0.724956 -0.684611 0.0758089
-0.368122 -0.699172 -0.350755 -0.380902 0.0382823  0.923822
  0.13442   0.59518 -0.355218  0.732449  0.674165 0.0949756
 -0.34849 -0.413339 -0.341048 -0.847296  -0.18901  0.496352
-0.393839 -0.413866 -0.404598   -0.83574 -0.0312356   0.548237
 -0.43693 -0.491724 -0.554388 -0.969552  0.230913 0.0815336
 -0.52737  0.337947 -0.318053 -0.900705  0.154074  0.406193
-0.562229  0.105892 -0.475537 -0.896399 -0.391362  0.208099
-0.0391673   0.251774  -0.968252 0.0745592  0.184321 -0.980034
 0.114925 -0.409874 -0.658587  0.771321  0.364894 -0.521456
-0.462786  0.200777 -0.867415 -0.695406 -0.239402 -0.677567
-0.0474664   -0.87772  -0.269206 -0.243975 -0.618797  0.746703
-0.322522  0.668744 -0.385054  -0.427222     0.9041 0.00921106
 0.127974  0.204219 -0.902974  0.677184 -0.108934 -0.727706
-0.340625 -0.415867 -0.328586 -0.847296  -0.18901  0.496352
  0.0542176   -0.257273 -0.00981987 0.941539 0.173065 0.289056
-0.194297 -0.701636 -0.295062  -0.225181 0.00703889   0.974291
 -0.265602   0.102734 -0.0444136 -0.121211  0.211512   0.96983
-0.0227035  -0.963188  -0.453851  0.198494 -0.794412   0.57403
 0.128257  0.612273 -0.445674    0.6466  0.758487 0.0812701
 -0.500744 0.00782738  -0.320267 -0.921452 -0.365262  0.132324
 -0.177504 -0.0828447   0.139648 -0.699628 -0.708259 0.0942861
 0.272494 -0.121674 -0.585786  0.903593 -0.395026  0.165752
 0.131499 -0.234541 -0.497598  0.887283   -0.4464 -0.116003
-0.0651513  -0.471742 -0.0412025  0.177057 -0.979655 -0.094483
-0.147091 -0.409606 0.0819925  0.116654 -0.340399  0.933017
-0.195902  0.631898 -0.209275 -0.0272662   0.811543   0.583657
 -0.22919  0.643948 -0.763679  -0.18217  0.869449 -0.459209
-0.319906 -0.296998 -0.726679 -0.808614  0.128187 -0.574205
 -0.18272  0.132318 0.0412451 -0.930418  0.265553  0.252594
  -0.13197    0.24933 0.00757142    0.162306 -0.00939506    0.986696
-0.200242 -0.478647 -0.100836 -0.0192417  -0.998685  0.0475253
0.0497376 -0.445452 -0.107327  0.356045 -0.932953 0.0532055
 0.245425 0.0734755 -0.351675  0.916617 -0.180217   0.35684
   0.1977 -0.170826 -0.439852   0.993315 -0.0253108  -0.112624
0.000553478   -0.367789   0.0302536  0.718974 0.0504269  0.693205
  0.29247  0.266866 -0.405473  0.923159 -0.232577   0.30608
  0.051818  -0.309709 -0.0122896   0.20171 -0.094288  0.974896
 0.147215 -0.302449 -0.239602  0.972604  -0.22913 0.0392528
 -0.225916    0.43024 -0.0408702 -0.230307  0.361141  0.903624
0.0628133  0.390474 -0.888172  0.504624  0.242769 -0.828504
-0.233381  0.687923  -0.35885 -0.151775  0.953044  0.262053
 -0.223842   0.413683 -0.0337243 -0.230307  0.361141  0.903624
 0.277265  0.438184 -0.456159 0.824653 0.503845 0.257075
-0.476166  0.218047 -0.218326   -0.85693 -0.0246276   0.514844
-0.344952   0.31721  -0.93951 -0.579012  0.350493 -0.736139
0.0873653  0.539639 -0.792539  0.598493  0.459318 -0.656379
-0.429672  0.362901 -0.124543 -0.574073  0.280019  0.769434
-0.571594  0.135362 -0.460454 -0.896399 -0.391362  0.208099
 0.188176 -0.143589 -0.266873  0.956723 -0.273712 0.0988022
-0.223282  0.276096 0.0068704  -0.185107 -0.0724417   0.980045
 0.0876047 -0.0169727  -0.857952  0.559095 -0.494543 -0.665462
0.0598556 -0.499709 -0.690165   0.23381 -0.638578 -0.733179
-0.294686 -0.718429  -0.54363 -0.873678  -0.32132 -0.365295
  0.292288 -0.0328469  -0.558815   0.74567 -0.146205  0.650077
 0.236659  0.363894 -0.767101  0.801013  0.140722 -0.581873
 -0.0621642   0.0718614 -0.00251451 0.789327 0.258341 0.556977
-0.138789 -0.734454 -0.281856  -0.139559 -0.0326769   0.989675
 -0.345168 -0.0868474  -0.852545 -0.529135 -0.509589  -0.67848
0.0290995 -0.447403 -0.261971   0.76685 -0.629243  0.126471
  0.101266  -0.198307 -0.0653108  0.805162 0.0644493  0.589542
-0.235895 -0.400323 -0.821349 -0.220801  -0.69821 -0.680992
 -0.16135 -0.114321  -0.89336 -0.0721346    -0.4053  -0.911334
-0.0529293   0.264689 0.00495489   0.290405 -0.0333474   0.956323
-0.560502  0.338361 -0.696359  -0.90361  0.097543 -0.417103
-0.00621156   0.0820841  -0.0391803 -0.0020654  0.0855919   0.996328
-0.0284888  -0.937042  -0.559907  0.286168 -0.306005 -0.908003
 0.0870038 -0.0754807  -0.824412  0.627394 -0.458126  -0.62968
 0.254899 0.0585057 -0.561561   0.961806  -0.266262 -0.0635137
-0.162066  0.044983  0.128108 -0.814144  0.220333  0.537236
-0.333627 -0.301365 -0.705455 -0.894631  0.127366 -0.428267
-0.110133  0.487061   -0.9075 0.0199349  0.394798 -0.918552
-0.0176892  -0.346158  0.0448244  0.57876 0.256853 0.773992
-0.444415  0.384663 -0.843647 -0.653796   0.25194 -0.713496
 0.259074 0.0147646 -0.613009 -0.294958  0.629645 -0.718712
 -0.231821 -0.0630899  -0.909166 -0.0909652  -0.409942  -0.907564
-0.350258  0.624475 -0.293333 -0.455015  0.852023  0.258877
  0.30282   0.41836 -0.548169  0.918193  0.395031 0.0295232
 0.0675269   0.361805 -0.0780515 0.487046  0.20236  0.84961
 0.0857554  -0.369762 -0.0575792  0.796117 -0.434678  0.421015
-0.325731 -0.833113 -0.404509  -0.923993 -0.0968648  -0.369939
-0.513556 0.0447619 -0.337419  -0.96242 -0.215273  0.165547
-0.325241  0.476703 -0.885843 -0.384374  0.438874 -0.812186
-0.566928  0.292598 -0.672993 -0.960645  0.124041 -0.248546
-0.587165  0.279312 -0.620306   -0.999359   0.0356519 -0.00337672
-0.0508139   -0.47398  -0.113831 0.187202 -0.95526 0.228982
-0.327563  0.596131 -0.217725 -0.504666  0.725457  0.468001
-0.362274 0.0146131 -0.884005 -0.617904 -0.483594 -0.619944
 -0.35624  0.647838 -0.622616  -0.466097   0.883203 -0.0520282
-0.287049  0.681742 -0.545615  -0.317598   0.948092 -0.0159381
-0.196687 -0.110473 0.0586356  -0.620585 -0.0463444   0.782768
-0.0037745  -0.687809  -0.286549  0.34062 0.260061 0.903519
-0.407935 -0.316518 -0.299849  -0.738672  -0.671852 -0.0545668
 -0.008689   0.503785 -0.0957448 0.219267 0.539029 0.813246
-0.458113  0.400151 -0.203779 -0.873531  0.120514  0.471614
-0.0857165    0.65019  -0.763404  0.101474  0.907129 -0.408436
-0.0463317  -0.428425  -0.790703  0.204209 -0.695986 -0.688406
-0.259959  0.690956 -0.509554 -0.269669   0.96282  -0.01603
0.0144814 -0.933968 -0.491199   0.89633  -0.39934 -0.192663
-0.00558747 -0.00918472 -0.00355675  0.243743 0.0995347  0.964719
 0.113312 -0.371474 -0.375122  0.637128 -0.746404 -0.192221
-0.100762  0.109558 0.0627793 0.905316 0.202958  0.37311
0.0819892   0.57027  -0.20966 0.482023 0.732845   0.4802
-0.417441  0.215755 -0.905398  -0.629796 -0.0298363  -0.776187
-0.0986246   0.340072 -0.0111583 0.0593839  0.446342   0.89289
-0.331403  0.391704 -0.917197  -0.37311  0.281451 -0.884067
 0.221673   0.38931 -0.287435  0.905598 0.0840944  0.415717
  -0.3696 -0.312971 -0.634893 -0.887741  0.221395  -0.40361
0.0100162 -0.938574 -0.406172  0.678539 -0.638488  0.363205
-0.277178 -0.871274 -0.495774 -0.795784 -0.310093 -0.520163
 0.018077 0.0612029 -0.933741  0.481732  -0.17832 -0.857984
-0.110693 -0.278407 -0.799058 0.0498666  0.247517   -0.9676
-0.0448917   0.575238  -0.145702 0.222444 0.726117 0.650594
 -0.269258 -0.0479316  -0.909645 -0.311619 -0.163349 -0.936061
 0.102924 -0.731358 -0.387136  0.855045 -0.323807 -0.405027
-0.335425  0.487773 -0.105601 -0.534675  0.412889  0.737324
-0.575659  0.145872 -0.520908  -0.965701  -0.256586 -0.0398176
 0.206933 -0.116603 -0.530889  0.962421 -0.219162  0.160355
 0.266697  0.469943 -0.653301  0.741668  0.570819 -0.352271
 0.258954  0.498895 -0.552961  0.709745  0.703047 0.0445809
    0.26859 -0.00688819     -0.5039  0.663331 -0.140772  0.734966
-0.566807   0.28121 -0.417085  -0.939808 -0.0191879   0.341164
-0.0438704    -0.1599   -0.83538  0.324105 -0.719282 -0.614483
-0.195297 -0.592277 -0.264355 -0.433604 -0.279236  0.856747
-0.00432357    0.210792  -0.0116421  0.381915 -0.707663  0.594436
-0.470349   0.15967 -0.844232 -0.732215 -0.316484 -0.603074
-0.231617  0.224819 0.0020172 -0.0938694  -0.409124   0.907638
-0.0543382   0.362643  -0.944077 0.0933343  0.218021 -0.971471
-0.158922 -0.216856 0.0888644  0.249892 -0.184311   0.95057
-0.188767  0.501133 -0.902882 0.0283509  0.467223 -0.883685
 -0.324474   -0.35842 -0.0418289 -0.741499  -0.17383  0.648045
 0.208511  0.112161 -0.255442   0.912159 -0.0671663   0.404295
-0.0365722   -0.21446  -0.767625  0.550443 0.0864316 -0.830387
 0.185374  -0.21972 -0.354346  0.963602 -0.200005  0.177394
-0.421849 -0.462806 -0.599261  -0.996803  0.0597829 -0.0530109
-0.412855 -0.546293 -0.438206  -0.925155 -0.0577267   0.375175
 -0.400762   0.305978 -0.0898852 -0.668021  0.218316  0.711397
 0.151207  0.563003 -0.317482 0.780378 0.555856 0.286417
  0.27227  0.128945 -0.396131  0.936357 -0.287006  0.202146
-0.0701759   0.698031  -0.547971     0.1675   0.985374 -0.0313296
-0.477363  0.285081 -0.217011  -0.891799 0.00276057   0.452424
 0.180747  -0.14021 -0.218227  0.938064 -0.318538  0.136268
-0.491733  0.422218 -0.279709 -0.907045  0.142464  0.396199
-0.504945   0.24594 -0.807418  -0.898985 -0.0961918  -0.427285
 0.0909242   0.286646 -0.0763665 0.529887 0.176259  0.82955
-0.215921 0.0561648 -0.956442 -0.137684 -0.340396 -0.930147
-0.114624 -0.602198 -0.627959 -0.0553084  -0.624011  -0.779456
-0.402211 -0.324419 -0.277533   -0.80927  -0.585544 -0.0471201
-0.515464  0.512768 -0.531982 -0.690111  0.723427  0.019978
-0.143867 -0.789072 -0.280568 -0.0840738   0.267251   0.959952
 0.210678  0.537222 -0.501432  0.65718  0.72589 0.202972
 0.207037  0.307691 -0.810541  0.734947  0.112706 -0.668692
-0.0628935  -0.976531  -0.454686   0.123467  -0.991948 -0.0281973
  0.100505 -0.0954357  -0.053399  0.602958 -0.104206  0.790938
 0.139369  0.140168 -0.115691  0.817269 -0.159585  0.553718
 0.311219  0.337524 -0.515394   0.999746 -0.0123496 -0.0188686
0.00932064   0.613211  -0.788853  0.359038  0.672512 -0.647163
-0.0186059  -0.408114  0.0517743  0.780326 -0.264896  0.566499
-0.504208  0.283681 -0.258119 -0.808212 0.0570475  0.586122
-0.58241 0.185395 -0.57734   -0.98639  -0.159031 -0.0417697
 0.116195  0.441645 -0.828913  0.630623  0.284262 -0.722156
-0.295003 -0.906676 -0.379079   -0.743658   -0.668561 3.58528e-05
-0.527321  0.502495 -0.536358 -0.667314  0.742957 0.0520295
 0.283386 0.0987713  -0.45993  0.951744 -0.303261 0.0470852
-0.018498  0.594532 -0.822929  0.214097  0.701765 -0.679477
 -0.268393  0.0940287 -0.0428937 -0.0822873   0.158159   0.983979
 0.213796  0.324275 -0.800317  0.734947  0.112706 -0.668692
  0.17197 -0.506838 -0.530432  0.97642 0.203374 0.072413
 0.102908  0.545197 -0.770171  0.605902  0.496668 -0.621453
-0.407667 -0.295789  -0.55697  -0.979718 -0.0966531  -0.175533
 0.221699  0.530825 -0.646549  0.711111  0.591743 -0.379686
0.107526 0.379338 -0.85975  0.584441   0.27791 -0.762361
 0.261438  0.482233 -0.491721 0.824653 0.503845 0.257075
0.0335789 -0.465212 -0.729488  0.212093 -0.692497  -0.68954
  0.20184  0.553539 -0.538666  0.679745  0.731714 0.0504078
 0.0906905 -0.0710359  -0.827473  0.551151 -0.313579 -0.773241
0.0424571  0.428213 -0.886689 0.481862 0.307767 -0.82042
-0.0981136  0.0864009  0.0708325 0.919191 0.314117 0.237527
 0.222078  0.458439 -0.343892 0.882887 0.391023 0.260023
-0.376658 -0.657368 -0.419774 -0.864674 -0.415829 -0.281824
 -0.325297  0.0775041 -0.0547526  -0.366406 -0.0483679   0.929197
-0.332758 -0.650882 -0.531857 -0.787054 -0.512818 -0.342876
 0.222417   0.34334 -0.787629  0.734947  0.112706 -0.668692
 0.187574  0.412934 -0.221388 0.902424 0.159029 0.400427
 -0.180146 -0.0337661   0.148106 -0.881481  0.228013  0.413524
 0.254998 0.0686082 -0.629927   0.815358  -0.574778 -0.0694445
 0.123997 -0.599229 -0.487674  0.724558 -0.609291  -0.32215
-0.329199 -0.857856 -0.379931 -0.882835 -0.238202 -0.404799
-0.143006 -0.323643 -0.796011 -0.102755  0.103835 -0.989272
-0.0609892  -0.501849  -0.238144  0.345279 -0.423962   0.83728
-0.258016  0.568969 -0.139632 -0.178162  0.793397  0.582048
 0.136973 0.0517742 -0.135378 0.528243 0.646083 0.550942
-0.564884  0.170043 -0.418185 -0.905242 -0.187743  0.381168
 0.123497  0.447754 -0.819836  0.671671  0.345859 -0.655164
-0.0534827 -0.0927416  0.0490366   0.59002 -0.748107  0.303665
-0.0698445  0.0126785  -0.938303  0.232131 -0.344896 -0.909484
-0.0289678  -0.469821  -0.120954  0.220342 -0.971094 0.0917952
0.312448 0.317572 -0.45819  0.913708 0.0930962  0.395563
-0.579839  0.310198  -0.62258 -0.946331  0.195924 -0.257045
  -0.289754  -0.0386861 0.000432901 -0.568242  0.408226  0.714459
 -0.342643   0.257525 -0.0336572    -0.41956 -0.00065261    0.907727
0.0458174 -0.439571 -0.086907  0.572348 -0.746989  0.338267
 0.0440902   0.323098 -0.0565561 0.516646 0.191867 0.834425
-0.404144 -0.454091 -0.411528  -0.880488 -0.0370153   0.472621
-0.425363   0.17289 -0.110434 -0.890032 0.0113012  0.455758
 0.125432  0.618063 -0.523472  0.598926  0.800141 0.0325953
-0.583422  0.198736 -0.501179  -0.998427  0.0183257 -0.0529912
-0.0206516 -0.0148529  -0.923965  0.326016 -0.277922 -0.903589
 -0.41392  0.488873 -0.180125 -0.673193   0.38783  0.629602
-0.141834 -0.171179 -0.852421 -0.0921259  -0.847069  -0.523437
-0.544827  0.159632 -0.377623 -0.894808  -0.24441  0.373607
 -0.12349 -0.389837 -0.810437 -0.115293  0.276728 -0.954007
  -0.495093 -0.00397565   -0.305252 -0.936476 -0.347653 0.0463563
-0.150289 -0.483733 -0.234761  -0.110654  -0.993456 -0.0282972
 0.144759  0.219112 -0.104717   0.893238 -0.0472882   0.447089
-0.0267488   0.323351  -0.946345  0.343208  0.271953 -0.899027
-0.225777 -0.454713 0.0287259 -0.683287 -0.670429  0.289214
 -0.344909  -0.017487 -0.0421916 -0.501094 0.0319073  0.864805
-0.322923 -0.531138 -0.676208 -0.132105 -0.649822 -0.748518
-0.518043 0.0709266 -0.712919 -0.816729 -0.331458 -0.472324
-0.0879066   0.369523 -0.0238177 0.0643649  0.277286  0.958629
 0.104071 -0.614965 -0.509437  0.770642 -0.532264 -0.350436
    -0.439 -0.0873106  -0.148663 -0.878627 -0.197467  0.434766
 0.287662  0.345178 -0.404331 0.830616 0.216121 0.513195
 -0.485973 -0.0709137  -0.622523 -0.877897  -0.46522 -0.113431
-0.508717  0.126356 -0.767236 -0.814766 -0.200183 -0.544136
-0.556092  0.169083 -0.695528 -0.942532 -0.161852 -0.292297
 -0.50887 0.0874841 -0.745038 -0.885748  -0.33337 -0.322979
  0.118396  -0.291108 -0.0918123   0.914369 -0.0400666   0.402895
-0.093469  0.698821 -0.380999 0.046765 0.985211 0.164837
-0.223636 -0.437195 0.0494086 -0.514793 -0.430308    0.7415
 0.191218 -0.147974  -0.32068  0.972863 -0.151965  0.174481
-0.355375 -0.777249 -0.357953 -0.991627 -0.117319 0.0539651
 0.187232 -0.181586 -0.337345  0.981863 -0.154198  0.110308
 -0.476364 -0.0652365   -0.29384 -0.935544 -0.343986 0.0801879
0.0216375 -0.888785 -0.517353   0.894966 -0.0375309  -0.444554
-0.241902  0.019121 -0.939067 -0.0737371  -0.331581  -0.940541
-0.409397 -0.372391 -0.454984 -0.952421  0.169816  0.253096
0.0571721  -0.44322 -0.196805  0.539316 -0.832946 -0.123849
-0.256778  0.424372 -0.929056 -0.163635  0.329359 -0.929917
-0.175345 -0.482373 -0.184521  -0.110654  -0.993456 -0.0282972
 -0.36837 -0.393421 -0.126711 -0.746523  -0.60937  0.267156
-0.141481 -0.421598 -0.809071 0.0074073 -0.343354 -0.939177
 0.158506 -0.470816 -0.620832  0.832817  0.313752 -0.456044
-0.0439525  -0.820431  -0.251629 -0.185747  0.324691  0.927402
 -0.47618  0.439205 -0.252756 -0.85652 0.258108 0.446938
 0.0269494  -0.417264 -0.0166755  0.785904 -0.277251  0.552709
-0.0877065  -0.949942  -0.377355  0.097738 -0.867584  0.487591
-0.0348472   0.660816  -0.721135  0.130039  0.933882 -0.333098
 0.132356  0.533599 -0.225631 0.720769 0.578365 0.382082
-0.222567 -0.455857 0.0294957 -0.580109  -0.74043  0.339467
 -0.125975   0.190923 0.00791879 -0.0608494 -0.0195904   0.997955
 0.0353018   0.471356 -0.0937247 0.323195 0.362978 0.873952
 0.136306 -0.277923 -0.104291  0.821604 -0.193826  0.536096
0.0885678 -0.831394 -0.302758   0.833189 0.00140674   0.552986
 0.238025 0.0400513 -0.631411  0.904018 -0.399916 -0.151057
-0.203411  0.592781 -0.847757 -0.147009  0.799654 -0.582187
-0.503133  0.258007 -0.255138  -0.801511 -0.0845686   0.591969
 0.158288  0.593454 -0.550735  0.682973  0.729413 0.0387879
-0.513471  0.314028 -0.284269 -0.869015  0.144761  0.473135
-0.323156  0.199548 -0.962562  -0.38202 -0.175162 -0.907402
 0.260201 0.0716361 -0.423348  0.767975 -0.626835  0.131499
-0.325476 -0.483037  -0.72116 -0.198908 -0.689688 -0.696252
-0.379585 -0.573246 -0.561149 -0.720497 -0.582131  -0.37684
 -0.132963   0.497545 -0.0738036 0.0163707  0.473434  0.880677
-0.548829  0.339648 -0.722559 -0.892149  0.170378  -0.41838
-0.318658  0.671207 -0.447642  -0.374033   0.927356 -0.0104522
-0.397609 -0.291518 -0.583767 -0.931836 0.0256065 -0.361975
   0.271256 -0.00781617    -0.49587   0.621794  -0.778867 -0.0820847
-0.454627  0.553013 -0.683468 -0.624926  0.717996 -0.306511
 -0.621222 -0.0174264   -0.62262 -0.288936  0.406815 -0.866612
-0.279567  0.477699 -0.914295 0.0137633  0.409976 -0.911992
 0.216836 0.0580919 -0.750355  0.798937 -0.487036 -0.352841
-0.335388  -0.64194 -0.540899 -0.749661 -0.568295  -0.33919
 -0.474636 -0.0549124   -0.24426 -0.954553  -0.29484 0.0435776
  0.28483  0.151407 -0.423449  0.967958 -0.177856  0.177268
-0.0694466  -0.744078  -0.582565 0.0966177 -0.103381 -0.989938
 0.106908  0.575575 -0.737892  0.570262  0.557838 -0.603008
-0.0388739   0.671859  -0.681579  0.205628  0.941004 -0.268753
 -0.217204   0.375749 -0.0264493 -0.055476  0.248341  0.967083
-0.142466 0.0683615 -0.971229  0.060884 -0.378663  -0.92353
 0.089267 -0.472238  -0.69999  0.600577 -0.559219 -0.571473
0.00981661   0.648513  -0.274862 0.269308 0.903288 0.333982
-0.435643  0.143532 -0.140579  -0.91244 -0.143716  0.383143
-0.227559 -0.476348 -0.119469  -0.37276 -0.925078 0.0726667
 0.287078  0.290177 -0.394149 0.882191 0.142265 0.448888
-0.143666  0.547061 -0.107587 -0.0107351    0.63077   0.775896
-0.399595 -0.247905 -0.106693 -0.880595 -0.116572  0.459307
-0.246657  -0.45833 -0.250342 -0.480865 -0.249402  0.840576
0.0453229 -0.910613 -0.386291  0.747657  -0.64154 -0.171568
0.0948442  0.383709 -0.869049  0.578466   0.21496 -0.786873
0.0814836 -0.400978 -0.698684  0.709805    0.2497 -0.658655
 0.266178 0.0247215 -0.518281 0.342266 0.917685 0.201764
-0.499786  0.200613 -0.807174 -0.873853 -0.164385 -0.457557
 -0.23042 -0.222223 -0.809148 -0.497186 -0.285405 -0.819359
-0.130856  0.236536 -0.989221 -0.0577071   0.139487  -0.988541
 0.230862  0.510995 -0.478975 0.688995 0.677181 0.258286
-0.538081   0.49998 -0.433875 -0.914402  0.234141  0.330222
-0.364912  0.342091  -0.91447 -0.571603  0.262122 -0.777535
 0.169682 -0.024615 -0.770973  0.724851 -0.335673 -0.601594
-0.436923   0.20339 -0.134207 -0.929654 0.0435479   0.36585
-0.184518 -0.480814 -0.139991 -0.0192417  -0.998685  0.0475253
-0.356027 -0.373997 -0.293198 -0.717659  -0.65056 -0.248471
-0.264018 -0.461836 -0.196986 -0.431744 -0.888474 -0.155599
-0.175789  0.371614 -0.952434 0.0420083  0.340114 -0.939445
-0.519081 -0.175825 -0.480063 -0.799286  -0.31234  0.513406
  -0.1604 -0.456941 -0.772517 -0.00575303   -0.690398   -0.723407
0.0221518 -0.740434 -0.556442  0.694105 -0.272502 -0.666303
-0.0528084   0.418952  -0.926862  0.309146  0.269595 -0.912002
 -0.418317   0.210569 -0.0980141 -0.820322 0.0757653  0.566861
-0.574225  0.384385 -0.546254  -0.996203  0.0856433 -0.0156677
-0.107488 -0.552655 -0.245932  0.246491 -0.116789  0.962083
0.00120527 0.00997901  -0.924921  0.309862  -0.35387 -0.882475
 -0.252911 0.00470178   -0.93312 -0.0737371  -0.331581  -0.940541
 0.127195 -0.629308 -0.438585   0.79175 -0.486277 -0.369683
 0.302256  0.222549 -0.460109  0.979981 -0.140046  0.141508
 0.266786 0.0273964 -0.543074  0.665862  0.739748 0.0969571
 0.232729  0.242533 -0.780144  0.871589 0.0414711  -0.48848
-0.404272 -0.390174 -0.603935 -0.952182   0.19252 -0.237248
-0.349677  0.647423 -0.644392  -0.38464   0.90567 -0.178362
0.0993332  0.620853 -0.697799  0.626322    0.6188 -0.474138
  0.184926 -0.0365685  -0.161089 0.866179 -0.15507 0.475065
-0.330133 0.0932352   -0.9385 -0.283468 -0.250639 -0.925649
-0.339535 -0.551746 -0.653129 -0.319648 -0.685107 -0.654563
 0.157695  0.577565 -0.415605   0.73522  0.675671 0.0540373
 -0.488278 -0.0208443   -0.28785 -0.935942 -0.339051 0.0951688
-0.303091 -0.897166 -0.411259  -0.780652  -0.624949 0.00464907
0.00646061   -0.58624  -0.635117  0.111186 -0.503625 -0.856737
-0.159009 -0.208438 0.0905196  0.249892 -0.184311   0.95057
-0.439009 0.0368475 -0.126635 -0.771617 0.0372435  0.634996
-0.411416 -0.137522 -0.113778  -0.892557 -0.0474999   0.448426
  0.284293 -0.0399304  -0.657232 -0.509462   0.11143 -0.853248
-0.347339 -0.419683 -0.182179 -0.681758 -0.683359 -0.261201
-0.547289  0.210019  -0.34886  -0.903432 -0.0310268   0.427608
  0.215154 -0.0928075  -0.452383   0.93756 -0.207804  0.278926
-0.349361  0.114194 -0.939922 -0.204366 -0.056423 -0.977267
0.0921779 -0.744999 -0.328173 0.536824 0.199523 0.819762
 0.150911 -0.571621 -0.428424 0.711904 0.229034  0.66388
-0.436413 -0.287655 -0.317993  -0.952365  -0.303724 -0.0274444
-0.320672 -0.787521  -0.42948 -0.869377 -0.293059 -0.397868
 0.196693  0.526693 -0.393516 0.819818 0.561456 0.112541
-0.0151341  -0.454357 -0.0083827  0.611843 -0.790342 0.0317513
0.0599306 -0.484616 -0.359533 0.611274 0.197113  0.76648
 0.295131  0.234325 -0.432268  0.928012 0.0259638  0.371643
-0.372505  0.202345 -0.940623 -0.433524  0.133224  -0.89124
-0.454994  0.554702 -0.663193 -0.705212  0.665333 -0.244966
 0.117501 -0.394087 -0.448373  0.935977 0.0600908  0.346895
 0.134782  0.610757 -0.477577   0.559376   0.828905 0.00384852
0.0870663  0.640811 -0.519287     0.47624    0.879285 -0.00728171
-0.524168   0.38868 -0.744177 -0.874478  0.260912 -0.408917
-0.0729135  -0.898874  -0.575804  0.122792 -0.226709 -0.966191
-0.328087 -0.811728 -0.397703 -0.882694 -0.265271 -0.387921
-0.236733  0.248972  -0.97762 -0.149616 0.0293464 -0.988309
-0.318847   0.51173 -0.867979 -0.410674  0.499941   -0.7625
-0.0810555  -0.478132  -0.131859 0.00407826   -0.99353   0.113496
   -0.28155 -0.00990433 -0.00941567 -0.562568  0.376085  0.736259
 0.286798  0.257816 -0.383343 0.882191 0.142265 0.448888
-0.470414 0.0181831 -0.769294 -0.710462 -0.387779 -0.587258
 -0.371166   0.323191 -0.0747344 -0.532711  0.210935  0.819588
-0.265598  0.307174 -0.966954 -0.260022  0.165384 -0.951334
-0.0426018  -0.371574  0.0715603 0.532691   0.2254 0.815742
-0.108256 -0.476089    -0.113 0.00407826   -0.99353   0.113496
 0.163426  0.438336 -0.193466 0.789455 0.306735 0.531671
-0.215643  0.511081 -0.897045 -0.149363  0.491892 -0.857749
 -0.16574 -0.120853 0.0684355 -0.310034 -0.410101  0.857727
-0.241359 0.0901573 -0.963591 -0.232258 -0.463003 -0.855386
-0.460972 0.0518859  -0.16272 -0.657508  0.414119  0.629435
 0.187108  0.100468 -0.214581   0.885468 -0.0710474   0.459236
 0.271446  0.386247 -0.713016  0.800537  0.314109 -0.510369
-0.307051 -0.891966 -0.377189  -0.780652  -0.624949 0.00464907
0.0118443  -0.59215 -0.631086   0.11177 -0.472633 -0.874143
-0.472902  0.058231 -0.786272 -0.775974 -0.311611 -0.548419
-0.234873  0.239021 -0.979659   -0.130636 0.000665883    -0.99143
0.0512082 0.0373651 -0.047501 0.423419 0.561607 0.710854
-0.489998 -0.175689 -0.419938   -0.974138 -0.00450235    0.225909
-0.113657  0.672832 -0.718103 0.0169439  0.951075 -0.308496
-0.233081  0.696306 -0.387555  -0.200701   0.979603 0.00990633
-0.482467  0.539759 -0.449946 -0.810161  0.585167 0.0349003
-0.0969622   0.139457  -0.991721 -0.0455147  -0.383564  -0.922392
 0.253749 0.0888227 -0.370547  0.926902 -0.269217  0.261487
-0.570071  0.380391 -0.612182   -0.99389  0.0881695 -0.0663936
-0.116154 -0.445658 -0.786347 -0.018424 -0.708908  -0.70506
-0.261494 -0.656984 -0.613482 -0.0134076  -0.238786   -0.97098
 -0.496905 -0.0260523  -0.651583 -0.923052 -0.351643 -0.155956
  -0.41426   0.189847 -0.0981435 -0.687274 -0.197173  0.699126
 0.232731  0.135769 -0.785837  0.911281 -0.186824 -0.366967
 0.164538 0.0422023 -0.813041  0.699491 -0.444536 -0.559553
0.0148671 -0.423077 -0.768321  0.419454 -0.448858  -0.78904
-0.150739 -0.756448 -0.284599  -0.225181 0.00703889   0.974291
-0.0964951   0.702829  -0.535964   0.109764     0.9938 -0.0177028
 0.107382 0.0800746 -0.889726   0.53271  -0.46552 -0.706761
-0.498055  0.411042 -0.290162 -0.907045  0.142464  0.396199
 0.118144 0.0941419 -0.115205 0.665501 -0.34444  0.66217
-0.372234 -0.682343 -0.358088 -0.956868 -0.241191   0.16196
 0.188867  0.551037 -0.670099  0.630847  0.620705 -0.465572
  0.22511  0.481112 -0.404632 0.780548 0.539191 0.316255
  -0.54471 -0.0167945  -0.480524 -0.0958647 -0.0202351   0.995189
-0.0297516  -0.263216  -0.769035  0.639511  0.202354 -0.741673
-0.554401  0.327499 -0.385915 -0.950903 0.0869646  0.297021
-0.106689 -0.722204 -0.285546 -0.0448212  -0.268627   0.962201
-0.152773 -0.648434 -0.269467 -0.260509 -0.302849  0.916743
-0.348058 -0.662766  -0.48102  -0.81591 -0.422393  -0.39481
-0.423128 -0.292259 -0.356924 -0.842759 -0.446621 -0.300478
 0.112008 -0.314172 -0.451266 0.958292 0.101834 0.267031
 0.315136  0.278473 -0.512037    0.995577  -0.0939416 -0.00139983
 0.122868 -0.272525 -0.527342   0.983359   0.174823 -0.0494129
-0.236123  0.649063  -0.24141 -0.253967  0.806048  0.534591
 0.179928  0.235118 -0.856245  0.798311 0.0651376 -0.598713
-0.371218 -0.362352 -0.656161 -0.909117  0.192305 -0.369494
 -0.180269 -0.0677316   0.184494 -0.290541  0.412469  0.863398
-0.508515  0.159168 -0.285113 -0.912563 -0.184014  0.365195
 -0.508111 -0.0206313  -0.449466 -0.786058 -0.600066  0.148439
0.0628757  0.206181 -0.941352   0.566313 0.00472342  -0.824177
  -0.13839 -0.0481215  -0.923565 0.00605232   -0.33949   -0.94059
 -0.126011  -0.473115 -0.0367612 -0.0021927   -0.99999 0.00382897
-0.129063  0.174107 -0.999024   0.0573316 -0.00293163   -0.998351
-0.0900238  0.0298997  -0.949507  0.132686 -0.395214 -0.908956
 -0.56936   0.14135 -0.606846  -0.964994  -0.245831 -0.0913939
  0.106623  -0.120565 -0.0597347   0.590189 -0.0753888   0.803737
-0.194626  0.486524 -0.910795 0.0283509  0.467223 -0.883685
-0.218272  0.589382 -0.156503 -0.103173  0.790739  0.603396
-0.318546 -0.689912 -0.520866 -0.845523  -0.40615 -0.346602
0.0024429 0.0708892 -0.939886   0.37931 -0.405686 -0.831591
-0.344143 -0.420973 -0.186251 -0.659426 -0.703389 -0.265331
-0.064178 -0.800933 -0.581473  0.050657 0.0215457 -0.998484
-0.413127 -0.223061 -0.508013 -0.970324 -0.047515  0.237094
-0.147412  0.693163 -0.643922 -0.0284694   0.978371  -0.204888
-0.423935  0.603818  -0.56939  -0.613058    0.78759 -0.0621392
-0.445543 0.0562064   -0.8235 -0.769627 -0.305324 -0.560761
-0.421569 -0.527971 -0.461115  -0.953966 -0.0473444   0.296154
-0.0199655   -0.97553  -0.515422  0.327949 -0.935433  0.131962
-0.344893 -0.102666 -0.849335 -0.809152 -0.381183 -0.447183
-0.373999 -0.183452 -0.626008  -0.752874 -0.0651458  -0.654932
-0.478003  0.551812 -0.542289 -0.793766  0.606807 0.0414841
-0.199992 -0.551314 -0.673442 0.0270216 -0.636225  -0.77103
-0.140282  -0.38441 -0.807154 -0.0713555   0.232361  -0.970009
 0.259605   0.21948 -0.335967   0.888822 -0.0327519    0.45708
 0.102675 -0.631259  -0.48665  0.782593 -0.480177 -0.396204
 -0.198042    0.21251 0.00291953 -0.240897 -0.356484  0.902711
  0.194072 0.00712315  -0.751885  0.828536 -0.310072 -0.466243
0.0215668 -0.350405 -0.748538  0.752034  0.322882 -0.574623
-0.182955 0.0347873 -0.952871 -0.101445 -0.363451 -0.926074
  0.154725 -0.0920111  -0.748817  0.739835 -0.603042 -0.298302
-0.0455346    0.34956 -0.0200572  0.34675 0.363853 0.864509
  -0.5755  0.344765 -0.455947 -0.987759  0.125782 0.0922505
-0.321878 -0.119201 -0.842422 -0.483097 -0.582424 -0.653758
 -0.321724  -0.313005 -0.0222563 -0.378566  0.227215  0.897252
-0.380313 -0.513022 -0.659092 -0.689339 -0.635238 -0.348259
0.0681535  -0.45524  -0.72625   0.23381 -0.638578 -0.733179
-0.125268    0.1487 -0.994167 -0.0455147  -0.383564  -0.922392
 0.22316 0.524481 -0.49628  0.65718  0.72589 0.202972
 0.0758165  -0.210491 -0.0313622 0.530016 -0.10092 0.841961
-0.0199294   0.297303   -0.95106  0.313914  0.227594 -0.921769
   0.1097 0.0198511 -0.858081  0.655999  -0.31189 -0.687306
-0.480313 -0.119288 -0.411542 -0.724622 -0.623653 -0.293223
-0.395647  0.625168 -0.605721  -0.502461   0.860971 -0.0791316
-0.523924  0.136713 -0.335289 -0.920559 -0.236663  0.310743
-0.417768 -0.540805 -0.525847 -0.791216 -0.535893 -0.294611
   0.13086 -0.0579498  -0.793174  0.682038 -0.433962 -0.588644
-0.0950352  -0.784053  -0.273853 -0.104571  0.325174  0.939854
 -0.244144 -0.0582795  0.0382789  -0.98822 0.0996989  0.116112
-0.0463434  -0.474162  -0.745073  0.226059 -0.759165 -0.610381
  0.0948576 0.000424081  -0.0493008 0.572994 0.227873 0.787244
-0.513559  0.370654 -0.301756 -0.869015  0.144761  0.473135
-0.227969   -0.4747 -0.108533 -0.281774 -0.940982  0.187499
-0.0773854   0.490821  -0.900323 0.169402 0.395543 -0.90269
-0.0870728  -0.568975   -0.25297  0.365002 -0.278984  0.888224
-0.171673  0.662804 -0.254596 -0.0260417   0.936706   0.349148
 -0.14048  0.697864 -0.367344 0.0145398  0.984782  0.173182
-0.113425  0.328668 -0.962324 0.113386 0.332311 -0.93633
 0.146171 0.0734806 -0.156921 0.687044 0.262956 0.677365
-0.124281  0.144059 0.0652875 -0.0812656   0.851977   0.517234
-0.0998416 -0.0712438   0.107141  0.672592 -0.709205 -0.211301
-0.438215 0.0391544 -0.116458  -0.910631 -0.0114649   0.413062
  0.26005 -0.150007 -0.574356  0.720254 -0.684276  0.114018
 -0.16693 -0.276436 -0.792226  0.243723 0.0265721 -0.969481
-0.0412208   0.605087  -0.826047 0.260633 0.527726 -0.80844
  -0.04484 -0.0834796  -0.895356  0.119001 -0.527706  -0.84105
0.204718 0.451856 -0.28679 0.872795 0.331479 0.358261
-0.318114 0.0527421 -0.044357 -0.504221  0.253911  0.825404
 0.127799 -0.352323 -0.271353  0.887967  -0.45264 0.0814363
  0.17264 -0.473742 -0.555457   0.998804 -0.0416918  0.0255539
0.00403612    0.42575 -0.0621687 0.275792 0.382992 0.881621
-0.0922666   0.632322  -0.211271 0.0671251  0.781149  0.620726
-0.411369  0.588186 -0.319735 -0.648296  0.684723  0.332966
  -0.4071 -0.312871 -0.560845 -0.931836 0.0256065 -0.361975
 0.310307  0.213106 -0.585645   0.994793 -0.0667729   0.076998
-0.207102 -0.955941 -0.403018 -0.230819 -0.972438 0.0329785
-0.0445595   0.693705  -0.547102     0.1675   0.985374 -0.0313296
0.0911321  0.414318 -0.863636  0.471713  0.292676 -0.831762
 -0.256981  0.0908397 -0.0384883 -0.199699   0.49865  0.843486
 0.226196  0.219871 -0.795971  0.832822  0.108403 -0.542822
 -0.305638  -0.200142 0.00789779 -0.624786  0.244819  0.741422
-0.0999046   0.169711  -0.011506  0.505453 -0.207223  0.837601
 0.283458  0.224485 -0.716371  0.868925 -0.160748 -0.468112
-0.207215 -0.941802 -0.501184 -0.316425  -0.90457 -0.285707
-0.127821 -0.164374 0.0910293 -0.445214 0.0498862  0.894033
-0.217013 -0.388292 0.0801755 -0.102339 0.0989564  0.989815
-0.155916  0.634473 -0.795614 -0.0764594   0.837152    -0.5416
-0.0300934   0.687141  -0.367059  0.19638 0.973073 0.120684
-0.00796657  -0.0169333   -0.918668  0.363815 -0.322739 -0.873772
0.0955173 -0.416873 -0.138066    0.7395 -0.586735  0.329972
0.0797153  0.510728 -0.828372  0.570084  0.328685 -0.752975
-0.533318  0.498028 -0.571808   -0.67178   0.738295 -0.0602618
0.0947754 -0.838574 -0.314338   0.924675 0.00532118    0.38072
 0.176007  0.253514 -0.169498    0.826908 0.000657842    0.562336
-0.522234  0.271849 -0.777615  -0.870238 -0.0239471  -0.492049
-0.0989512  -0.302846  -0.799731 -0.0313884 -0.0234448  -0.999232
  0.05446 -0.865365  -0.28209  0.614401 -0.198135  0.763711
-0.491042 0.0499061 -0.245313 -0.930393  0.179504  0.319606
-0.120322 -0.100228  0.133312 -0.0847662  -0.991304  -0.100656
 0.126688 -0.241753 -0.506637  0.887283   -0.4464 -0.116003
-0.0933232  -0.491749   -0.73517 0.0515805 -0.774716 -0.630202
  0.036774  -0.429373 -0.0508062  0.557965 -0.742542  0.370549
 0.268378  0.443054 -0.439339 0.812486 0.457778 0.360979
 0.253594 0.0985623 -0.711761  0.852201 -0.443695 -0.277287
-0.512539  0.215859 -0.278728  -0.900324 -0.0771265   0.428331
-0.00429316   -0.773347   -0.587305  0.888694 -0.193458 -0.415689
-0.454649  0.443809 -0.806239 -0.725438  0.339796 -0.598563
-0.211084 -0.474147 -0.083744 -0.239418 -0.951115   0.19509
-0.0305804   0.686161  -0.597802   0.278849   0.956159 -0.0894656
 0.152622   0.52245 -0.245265 0.811471 0.501563 0.299916
-0.529309  0.424978 -0.730822 -0.664947  0.509426 -0.546196
-0.447058 -0.127307 -0.538781 -0.374035 -0.817332 -0.438253
 0.304907  0.218513 -0.474734   0.942035 0.00818225   0.335414
-0.536149  0.412764 -0.720308 -0.818366  0.279087 -0.502383
-0.141969 -0.491169  -0.21453 -0.161549 -0.730264  0.663789
 0.264081 0.0113243 -0.502709 0.676994 0.319755   0.6629
-0.449369  0.570662 -0.359193 -0.721161   0.58802  0.366278
 0.094187  0.461544 -0.838885  0.570084  0.328685 -0.752975
  -0.3387   0.66239 -0.512659  -0.374033   0.927356 -0.0104522
-0.462242 0.0873922  -0.19365 -0.837867  0.298498  0.457031
 0.122753 -0.362728 -0.471307 0.958292 0.101834 0.267031
0.0271049  0.673365 -0.522727   0.279366   0.959466 -0.0371527
-0.0787099  -0.914359   -0.57283  0.165026 -0.351006 -0.921717
-0.104946 -0.709807  -0.27776 -0.0713979   -0.02989      0.997
 0.239184  0.398215 -0.748492  0.742647  0.374017 -0.555506
-0.227126 -0.610628 -0.291259 -0.561782 -0.231079  0.794357
 0.119165 -0.370841 -0.315944  0.730073 -0.673428  0.116142
 0.140095   -0.2426 -0.468531  0.494942 -0.734148 -0.464821
-0.0012651  -0.689219  -0.591235 -0.126586 -0.198344 -0.971924
-0.453675 0.0698475 -0.819883 -0.774107 -0.299447 -0.557754
-0.0911969   0.640254  -0.221368 0.0671251  0.781149  0.620726
-0.486329 0.0123352 -0.212679  -0.889143 -0.0503625    0.45485
0.143892 0.162018 -0.10944   0.941765 -0.0826686   0.325952
 0.306584 0.0214043 -0.576414  0.159246  0.933275 -0.321929
 -0.17882 -0.222035 -0.799856 0.0614815 -0.701959 -0.709558
-0.326856 -0.817925 -0.405677  -0.923993 -0.0968648  -0.369939
 0.123747 -0.341587 -0.132311  0.954703 -0.213284  0.207491
0.0101674  -0.52772 -0.301424  0.691975 -0.184094  0.698054
-0.324195  0.569765   -0.8177 -0.361162  0.734931 -0.573967
 -0.266042 -0.0286213  0.0110881 -0.471222    0.3341  0.816289
 -0.29013 -0.447759 -0.202066 -0.385555 -0.898377 -0.210394
 -0.263904   0.414598 -0.0448926 -0.208927  0.292881  0.933043
-0.224635   0.69954 -0.536277  -0.200701   0.979603 0.00990633
-0.410504 0.0626623 -0.123855 -0.663087  0.239367  0.709238
-0.444499 -0.141817 -0.513587 -0.322943 -0.807954 -0.492867
-0.179556  0.245101  -0.98517 -0.0577071   0.139487  -0.988541
-0.165645   0.12342 0.0806548 -0.441808  0.676143  0.589607
-0.460899 0.0360255 -0.161783 -0.85423   0.2015 0.479259
-0.246183  0.669725  -0.69942 -0.179146   0.93451 -0.307566
-0.252181 -0.803665 -0.296552 -0.364865  0.101813  0.925477
-0.496176 -0.106759 -0.553853  0.250543 -0.631084  -0.73414
-0.0549924  -0.565206  -0.656623 0.0317438 -0.603353 -0.796842
-0.366446  0.587048 -0.242358 -0.631228  0.636878  0.442649
-0.224546 -0.905878 -0.550608 -0.546057 -0.723465 -0.422398
 0.218563 0.0710197 -0.768777   0.72601 -0.401698 -0.558165
 -0.243348 -0.0622306  0.0535189 -0.77035 0.585369 0.252791
-0.316918 0.0121856 -0.912031 -0.330681 -0.348495 -0.877041
 0.125975  -0.31909 -0.129588   0.972324 -0.0643152    0.22461
-0.186521 -0.958444 -0.467334 -0.267935 -0.949065 -0.165793
 0.0935774 -0.0755612 -0.0459338   0.590189 -0.0753888   0.803737
 0.276153  0.085279 -0.488092    0.89835  -0.438619 -0.0240744
 0.191258  0.172783 -0.205852  0.839975 -0.127267  0.527489
-0.270741   0.41573 -0.928778 -0.207686  0.332469 -0.919962
 0.126704 -0.286494 -0.122046   0.963302 -0.0932415   0.251704
-0.0225902  0.0297409  -0.941201  0.309862  -0.35387 -0.882475
0.0357784 -0.343446 -0.725666  0.728366  0.361547 -0.582037
 0.131573 -0.377565 -0.565718  0.974306  0.184122 -0.129716
 0.239752   0.51781 -0.545547  0.709745  0.703047 0.0445809
-0.0763307   0.647456  -0.767145  0.101474  0.907129 -0.408436
 0.229789  0.389072 -0.308194 0.903192 0.177642 0.390752
-0.574055  0.370703 -0.583272 -0.986744  0.117719 -0.111704
-0.243764 -0.176702 0.0686078 -0.642866 0.0134038  0.765861
-0.371708 -0.474593  -0.71008 -0.398022 -0.656763   -0.6405
0.0965364  0.209517 -0.919709  0.460362  0.107228 -0.881231
-0.415953  0.316219 -0.114557 -0.815603  0.127311  0.564432
 0.309549  0.268578 -0.502987   0.997896 -0.0587652  0.0273886
-0.270098 -0.658516 -0.315062 -0.246932 0.0482409  0.967831
 -0.223332  -0.467258 -0.0126116  -0.210415  -0.977065 -0.0327128
 0.151612  0.237438 -0.121134 0.928209 0.226772 0.294961
 0.130569 -0.398904 -0.608379 0.879359 0.303136  -0.3672
 0.0621273  0.0161213 -0.0332395 0.548659  0.39778 0.735353
0.0357886 0.0122655  -0.91073  0.444367 -0.334522 -0.831043
   -0.216239     0.216769 -2.10045e-05 -0.0938694  -0.409124   0.907638
-0.223283  0.574176 -0.855209 -0.196266  0.547446   -0.8135
 0.152991 -0.537465 -0.537513  0.686013 -0.613688 -0.390862
-0.421334 -0.281042 -0.197564 -0.982444 -0.135616  0.128107
-0.180827 -0.945043 -0.521082 -0.273065 -0.920401 -0.279817
0.0356336 -0.533688 -0.664531 0.0550704 -0.669774  -0.74052
-0.178304 -0.955886 -0.382576 0.0129839  -0.97467  0.223273
0.00519716  -0.590728  -0.632705   0.11177 -0.472633 -0.874143
-0.501493  0.445292 -0.312893 -0.793967  0.453758  0.404623
-0.368879  0.403725  -0.89728 -0.421648  0.192442 -0.886103
 -0.14532 -0.534881 -0.686571 0.0150276 -0.765403 -0.643376
-0.0996771  -0.986004  -0.472883  -0.50394 -0.833891   -0.2251
-0.562038  0.133168 -0.434515 -0.880076 -0.331758  0.339711
 0.202484  0.541431 -0.664455  0.630847  0.620705 -0.465572
-0.235432 -0.661496 -0.613892 0.0136042  -0.29005 -0.956915
 0.219708 0.0449615 -0.268097  0.989496 0.0745038  0.123882
 0.141863 -0.550891 -0.542968  0.590844 -0.626088 -0.508839
-0.315846 -0.593691 -0.332956 -0.359764 0.0262274  0.932675
-0.506945  0.205167 -0.794569  -0.838183 -0.0575306  -0.542346
-0.239151 -0.240007 0.0419604 -0.631676  0.303145  0.713504
-0.0553064   0.694056   -0.58366  0.227597  0.962558 -0.147246
-0.0289507   0.353421 -0.0266375 0.416651 0.286944 0.862592
-0.00502918    -0.69282    -0.28817 0.0212169  0.301703  0.953166
0.0497801 -0.659779 -0.553866  0.766918 -0.473268 -0.433421
 -0.225945   0.396828 -0.0309473 0.0174752  0.226849  0.973773
-0.217125   0.59315 -0.161245 -0.103173  0.790739  0.603396
 -0.194639 -0.0737912   0.131843 -0.301365 -0.917775 -0.258588
  0.216181 -0.0811545  -0.453613   0.959382 -0.0621395   0.275182
 0.0887478 0.00741534 -0.0483921 0.548659  0.39778 0.735353
-0.513917  0.115779 -0.755559 -0.814766 -0.200183 -0.544136
-0.569606  0.245758 -0.407667  -0.981953 -0.0885801   0.167099
-0.0167354   0.190062 -0.0236019  0.418373 -0.581681  0.697575
0.0428575  0.270546 -0.934207  0.367154  0.262298 -0.892411
 0.285542  0.159763 -0.682026  0.899303 -0.403093 -0.169616
 0.117584 -0.326543 -0.584253  0.927286 0.0741143 -0.366945
 -0.0938303 -0.00809619    0.112542  0.833531 0.0477194  0.550408
-0.376264 -0.670076  -0.40382 -0.849796 -0.378055 -0.367316
-0.531223  0.159371 -0.339235 -0.920011  -0.24325  0.307262
 0.204928  0.233566 -0.823079  0.798311 0.0651376 -0.598713
