0.57251548585774359 -0.3569190948947098 0.74672073864041355
0.59261100352842289 -0.37820216297947751 0.72512376892202146
0.60291732228883133 -0.3427074106463221 0.72296070308162497
0.4953656275505271 -0.23305538553687702 0.8157984364951264
0.47366475310106282 -0.30217146990900551 0.82074118040082433
0.54105734644486114 -0.27823574457120798 0.78424150630735101
0.50338723310368383 -0.28789775629057862 0.79612979034811748
0.53390439266056666 -0.26333513833086869 0.82451336192837199
0.48430062197984586 -0.26724952986471023 0.81777717597083965
0.51202771423407467 -0.34341319482160676 0.77724321571441424
0.45190683130205994 -0.46626595751573974 0.75445867378712017
0.41273448247605998 -0.42419466900058866 0.79748680432953267
0.4948633883936483 -0.41552725014501718 0.78628025180828132
0.44182288435857481 -0.36180449780328383 0.80682211446041197
0.47341448149426069 -0.39280447554886405 0.80599191319245633
0.43447631597361558 -0.39951375001712119 0.81561084151965801
0.4462569694924397 -0.41339190913900636 0.77965027956763455
0.36745763441804596 -0.47029353028883925 0.81761184534534481
0.35195488122877672 -0.50161115098628095 0.81153279433238112
0.38392546507922165 -0.4403966151067894 0.82584772281502905
0.39698737784017635 -0.4070853737711011 0.82694010401160856
0.41429215518674595 -0.47242554439499856 0.76445783229304065
0.42987212522656121 -0.4427153876549984 0.77164332447375261
0.39346317698302069 -0.44993030103671117 0.78315445549694507
0.51335202591360607 -0.39257179111771762 0.74576696135399867
0.52912633147404642 -0.36259846393784328 0.75259693647073511
0.49391350445298599 -0.37174810894007077 0.7667267682265636
0.56427287982209084 -0.40154905098865629 0.70508242866331416
0.53890200954056611 -0.41824539865647087 0.73281929429953896
0.56162662348538828 -0.44192407339599982 0.71498926521858497
0.47883678036124555 -0.44649195982268608 0.77945745118820142
0.48054960252276563 -0.45107424226966431 0.72994341724943235
0.50298564573297144 -0.42709855618957032 0.74688342369757688
0.46429432515505381 -0.33686847592682989 0.82549167025330383
0.4894942755683041 -0.36196757663681961 0.8130366544662756
0.49755061964224201 -0.32587664054806942 0.80654351410144465
0.41361310377518712 -0.37719798789369663 0.8353336858357403
0.42237742271938172 -0.34118450663370981 0.82827852861140594
0.45214149999476005 -0.2800461968369013 0.83851998669732042
0.43892449184303772 -0.31180936568756235 0.83662461394583199
0.57266322683569093 -0.21355088494557048 0.79460618771425384
0.60428846238898137 -0.079610096986714798 0.76933720254198767
0.60383804238727656 -0.1496298814939005 0.80205242922860387
0.5557663533730044 -0.1072492266517399 0.83296549912297735
0.53708056175310326 -0.17512041041123713 0.84328472159449952
0.53427357583945578 -0.1379060982629027 0.81941628180025017
0.56122993404687749 -0.1597492782127525 0.80935819341725934
0.57090756186325198 -0.12640632280207806 0.80515711319347771
0.64405486685962721 -0.11890431896784842 0.73080684151831266
0.63545485774070187 -0.15190289369404006 0.73570568461878061
0.65268605467085106 -0.17100501788678971 0.71336443390549154
0.68583980929605481 -0.14312491305306924 0.73500589470162436
0.59896139782687219 -0.19890943392640972 0.76616338620149427
0.61038355040871073 -0.16623687682534297 0.76452497798335772
0.57439404138207195 -0.17753508559459003 0.77962481194777167
0.62638411909504421 -0.099607709628868113 0.75273486248279375
0.60817321089666454 -0.1147985858066318 0.79078482022159069
0.61850230894997971 -0.13275690499577875 0.75875577514309389
0.56615899073235521 -0.040233514923673691 0.81073060337012748
0.52954682313177337 -0.086201981224815566 0.84422484257389585
0.50991672500927665 -0.11695557052276857 0.83257783318728729
0.54669022132674472 -0.053940809655472655 0.85122569043053586
0.55068142457093794 -0.02038313596939044 0.83765757471151481
0.58243997746932585 -0.093579097697866195 0.80366774984479816
0.60153195799998771 -0.061637089094787351 0.81193167426389967
0.55576243583082929 -0.072756376928816327 0.81408441761509676
0.48634075040070235 -0.18115878769543212 0.8340050693220018
0.5081225253859738 -0.15226597134133393 0.85010238395137572
0.55053751784919369 -0.19289798241487174 0.81223756375173417
0.51644243977205928 -0.20478865242441369 0.83021594603333304
0.53736883766525956 -0.2249733945166294 0.81095842082436331
0.4754327631126033 -0.25195277060789084 0.85803111036985846
0.47621385162792418 -0.21391696551918674 0.83752098186789559
0.71749604655696675 -0.37724092917443325 0.61030827072145732
0.75984148672435936 -0.23745693409807611 0.60777852076189398
0.63683487427618979 -0.2911677276335346 0.69082045314680041
0.70904531011774274 -0.26882611833351289 0.660166250014661
0.68033872175042642 -0.33539450989398162 0.65486906947053014
0.7425474355883972 -0.30843264751070276 0.61213589667239043
0.70290413944538954 -0.31816418157208232 0.6261011736737303
0.73413854434516235 -0.29191331527733949 0.64356204212051926
0.69250638278919951 -0.30122359729005788 0.65546654065286258
0.73095896267721627 -0.20015008347616622 0.65871563670471089
0.70060910908069562 -0.21425956288653897 0.68045040978362015
0.71558716149606472 -0.18116701010997388 0.6835424546793839
0.67054171422939357 -0.19119717337453621 0.69012256522466942
0.75721657291787992 -0.22228210244866003 0.64325772738762221
0.71449242520906731 -0.23267018586453211 0.65438414238047327
0.7185963741306598 -0.24763114970439917 0.62020482285882972
0.66246737679222834 -0.26348732951238113 0.70592136703917752
0.67633865549307948 -0.28169864582810455 0.6794793197277823
0.69467681597239972 -0.25026570759647737 0.686127030722956
0.65337647236372842 -0.3612568484587162 0.63959141263446384
0.6808098835446269 -0.38720487961326172 0.62649486184798675
0.68702901684896944 -0.35017283512151065 0.62208562000182599
0.62138701583246847 -0.41440323668938239 0.67049712311029919
0.6441626360932553 -0.38658824799410729 0.68236787800967225
0.60753105933247498 -0.39609790175682008 0.69726218559675135
0.65925874286236907 -0.31349253189826087 0.67391376965195637
0.6398831350173616 -0.33221850540955855 0.70695693095443701
0.64385544859329458 -0.34535507105445901 0.6698636043837557
0.78132497738969386 -0.27218022383772655 0.55163387649640305
0.75902831953416883 -0.32826533946857106 0.58794946823432659
0.70802889238372158 -0.33241254689288163 0.59279858106551908
0.74738722745287078 -0.36325298813149326 0.58765795774565976
0.73413633542139956 -0.26657899918629169 0.59606055645149836
0.76752239627946928 -0.29222740825779581 0.58578764626225188
0.76501670420711154 -0.25303023838622618 0.57537953705369616
0.80057302174204825 -0.33183932774876368 0.53682208645221485
0.80410443889385774 -0.29382052588924906 0.53183617802784289
0.76842493662005029 -0.30572619155316511 0.55027639263113814
0.28679590374749975 -0.74255824262111725 0.59345071981663711
0.30950143566578869 -0.72482844627486664 0.61640561368866353
0.2748345852303154 -0.72387816638166735 0.62744134150518593
0.3405688345932964 -0.77909413366183278 0.56047899782141097
0.30092856808635177 -0.76695601429498284 0.56383408810379632
0.31038437062190632 -0.77962090251056304 0.52578386293780033
0.23405227160489783 -0.77088184620494737 0.59096599200362787
0.25117489972397627 -0.80582741796619017 0.56837396400770746
0.26370859523715962 -0.75815905014775054 0.56929593653001398
0.28351139277939252 -0.79910797880165663 0.55131777755806854
0.23905874158034612 -0.83674245221234156 0.50808743433559356
0.30871695994121595 -0.83855127443764499 0.48395298580390389
0.27586018777692239 -0.8441229512427274 0.49990469026439038
0.28770328053887667 -0.79559189827626708 0.50304713956953417
0.25452636983323951 -0.7969364859922522 0.51604806817638849
0.18658829659787618 -0.74642428977782593 0.63173188961011661
0.25696617024478735 -0.75467842178782107 0.61519937557532178
0.22597869982858118 -0.69498350961659128 0.66373579417918205
0.24570547923296862 -0.73771805178648053 0.65134315563849465
0.20820493112878485 -0.72702210053555516 0.65357335459040566
0.21768555627519964 -0.73734976221722548 0.61256633808096639
0.38564192333610647 -0.73563479011925204 0.55181215570823883
0.35583412452227819 -0.68593010677003186 0.60933321221806935
0.31724239120761244 -0.73399678775210653 0.57481077572816341
0.34253573219707362 -0.72259856210787976 0.60261533437278236
0.34891255267459609 -0.72997076785359583 0.55967187855828504
0.37966214264925902 -0.72792338812108759 0.59489898302423438
0.29372384380688454 -0.69689177068094876 0.64242404934882946
0.36541360425085262 -0.59134453585347979 0.69512644640859622
0.30244785241191641 -0.6002543848522145 0.72813954923822555
0.2695792847634238 -0.66201448375521932 0.71103064546036321
0.33154925240788075 -0.64735891132443424 0.67253489253622545
0.30571964641034616 -0.66524948942670226 0.70284298172726623
0.32570000783925568 -0.6409332752581528 0.71955488481462238
0.28379644951876887 -0.62566891487129317 0.7137281527349143
0.30609176379156605 -0.55093444985105111 0.76934378883357335
0.32963061013236022 -0.53328488817655051 0.79527680857784722
0.35124366814709945 -0.56840848696947044 0.72281710707063185
0.31968917658492862 -0.57258778425613099 0.73919576760967065
0.33698125795921924 -0.6009475767625162 0.71775857776514584
0.2742478404222029 -0.61321478939595564 0.7552570097080481
0.28515848995782528 -0.57161971044639848 0.74895828788360608
0.25274412339738872 -0.69292239586792104 0.70155721396008019
0.26583878354466867 -0.71223033166368044 0.66838008416131933
0.28280558144532431 -0.68214748238108758 0.67899475613808435
0.1912350405046139 -0.69025953010933583 0.6706746125022498
0.2178831504521633 -0.69195565338514797 0.71245550584349415
0.25166545301182103 -0.63030113065709492 0.7302967446687888
0.23149992578158685 -0.65109260336950725 0.71089885111136175
0.34478325437323226 -0.66875467419157109 0.64278952619200647
0.31505361915234281 -0.67727100230788051 0.66254356341666887
0.33057223645191547 -0.70345105287601717 0.63671415082904081
0.34642084757568536 -0.61541889824678653 0.6796646088764724
0.37037256172032562 -0.65573153754137237 0.66986292760422228
0.39270246713657464 -0.63531327431324047 0.69042273852371649
0.398988042149516 -0.70235275700410715 0.61195944634383626
0.41479665081816741 -0.67112855916517666 0.62197386561437629
0.38155097813520761 -0.67347615118060022 0.63576816039416484
0.47271305284525172 -0.76481531264883862 0.45811596738701565
0.34859141904212682 -0.78897780086708402 0.51976590302429637
0.36696694280904196 -0.81832784839399086 0.44812429370248325
0.43379809144072423 -0.81554572415462911 0.4220837581290981
0.40085326201116184 -0.75850732608709748 0.47739060089978014
0.4247699339863798 -0.80111215618996989 0.45854095649521809
0.38788002551122286 -0.79588835724090778 0.46748039280498271
0.39498776422832466 -0.80637151796605488 0.42955394830374227
0.31073032479071339 -0.8337296744970859 0.43740569017866454
0.28111213019869563 -0.84171811171394917 0.4538675580540556
0.33028436042277332 -0.81746988274949051 0.50429717761396509
0.3326282998515101 -0.81510156713991011 0.45845036246217019
0.36180670803241333 -0.8126752652679865 0.48927675279301391
0.38018060654635133 -0.84193539540137352 0.41688212973501459
0.34367905405440141 -0.83433477473894002 0.42546604866285431
0.45626897910700476 -0.79418820263946721 0.39900585480972156
0.46944814322507677 -0.75967401297875081 0.41169817066157732
0.4525852009217684 -0.78884938214440392 0.43946061728307972
0.49410323773625059 -0.79946674700065945 0.34672150622438136
0.46805531249754828 -0.81372051782759458 0.36570859678417866
0.41026470015648436 -0.83340065461075319 0.40008977840679888
0.43756177508793453 -0.82053249893730573 0.38145440772371103
0.43187218410347594 -0.7552316763881789 0.5086080956047152
0.4335148123974718 -0.75679978176588991 0.46492296985321441
0.4608735810043002 -0.74568350469978606 0.49092432332830327
0.37176474756807965 -0.76676109457282193 0.49393560846687651
0.39171133901568417 -0.74413258773660607 0.51222695673756324
0.37161362392539593 -0.7713257210485438 0.54230837156265199
0.44062311493560968 -0.71290030071758204 0.55998333428905123
0.39842534793956352 -0.69959392155509426 0.55987646113223744
0.4212238968731678 -0.73803826945785189 0.54273961824986772
0.21129347018691269 -0.7862365903830818 0.56662834307279908
0.1743475483112942 -0.83956054641666034 0.53470813135524109
0.14624826029756791 -0.78391884462404293 0.5901902088818598
0.10848929659146289 -0.84258013391864062 0.56218216437563095
0.12922115918321739 -0.8230817317649114 0.58361664089553111
0.13831927748668801 -0.82187101131110707 0.53587423137851964
0.15754029297685898 -0.79816300305445564 0.55346718986497045
0.2201689985089596 -0.86200234615275295 0.49013458598000564
0.24660931124910568 -0.83989033529031321 0.46537869301931911
0.1841237279829995 -0.84765192529639843 0.49429903130357256
0.14962243499099848 -0.83533006087220263 0.49929103765090777
0.22293753954158435 -0.80364511849725528 0.53252094722346377
0.19510131776336825 -0.82151935702865442 0.55683029703272069
0.20230630880436953 -0.82015149550841537 0.51018225124692662
0.13629578890190266 -0.77897510925805546 0.63498437015861264
0.11258733133038187 -0.7755429746001089 0.59645492000663969
0.15621333772310356 -0.75658464862673158 0.65348725438244337
0.17305374550619851 -0.72187444982351612 0.6604782214038345
0.18318434019751548 -0.80443777020910401 0.59266913834195301
0.20189536845398956 -0.77762179195313563 0.60792505796120444
0.16522813684403567 -0.75988488747256011 0.60667882558430319
0.075058537207113016 -0.83984762432619287 0.57334938939626401
0.094230701752571019 -0.80925344806374855 0.58648879794845366
0.11695962854046937 -0.83260667411377465 0.50993439014878739
0.085456688053217295 -0.83692382546925204 0.52496698114670837
0.05278384769471102 -0.83298167337481832 0.53497283367070114
0.49092687543608016 -0.79433654112668572 0.30340955631290595
-2.7011257812999305e-15 -0.98503674843766453 -2.7013697125016811e-15
0.26136982542214154 -0.94567559624170883 -0.16155492360890483
0.52181162633211964 -0.84426719885106183 -1.2914962646555662e-15
0.26427303587579221 -0.95611779187689239 0.16331115398393478
0.4025858680849756 -0.91979638240287676 0.082932052110212609
0.26453064372593788 -0.95710334357351257 -1.0938740241192009e-15
0.40476796391456471 -0.9247880889834873 -0.08337775859143752
0.33171948969428799 -0.93479952201090954 -0.04100444257102636
0.40334637451485927 -0.92152956163314725 8.9936674202092167e-16
0.33811471461637527 -0.95281460761646641 0.041790618395621079
0.36479015578613405 -0.92186917743076147 0.020496104956096578
0.32991026874178653 -0.92970194632232117 -2.0299165566535099e-15
0.36427945286764968 -0.92057844693485613 -0.020467483064858655
0.29806412682005434 -0.94514819135707595 -0.10185522860228932
0.26123613555891567 -0.94520187105014586 -0.12061848987932154
0.29936669644554548 -0.94868870715244302 -0.14347266726232472
0.26797206855454264 -0.96950930940348368 -0.041058397509984378
0.29712282617920316 -0.94255192997828519 -0.06084687186909718
0.3026628835984112 -0.960320693445743 -0.020813713086520726
0.36317364782643896 -0.91697301315761592 -0.10178178975397216
0.37336808027555513 -0.94370905567668206 -0.062903401212068666
0.32750177122496821 -0.92220992290714077 -0.08063771257252661
0.43338502537328394 -0.90207918905156681 0.020687474555037059
0.43465786457322392 -0.90459419891535309 0.062200344245198338
0.39741348984847308 -0.90796484605506056 0.040865752206563313
0.50125024512992111 -0.87871918554780792 0.020901555843301341
0.4694559948879331 -0.89475330784503215 1.5902221479944888e-15
0.49252092753033738 -0.86340529648700937 -0.020552225348386879
0.39949744886543687 -0.91272928446361135 -0.041080369675994356
0.43089854781582393 -0.89676310600212272 -0.061669091417929658
0.42670038324630943 -0.88816621683762464 -0.020369128583139304
0.33983833380628409 -0.9569553097361887 0.083675793207795446
0.36638493835932134 -0.9260667085276526 0.06173097456317754
0.37062306646772925 -0.93581151626574433 0.10385733963532927
0.3025089901694083 -0.9598325548299903 0.02080324537772708
0.30266562446948403 -0.96013352620148784 0.061982784700535976
0.27092211257556742 -0.98014540081607415 0.041510034597708766
0.29577172352478537 -0.93727337240291697 0.14175511902396173
0.259505183101432 -0.93896116738916469 0.11982082786101006
0.30145805591228902 -0.95590888646269034 0.10301423481781072
0.42245055705158813 -0.88153751169739569 0.13871981685820983
0.39059866945549582 -0.89455310398324617 0.11974374870459181
0.43576387703104785 -0.90766418610654576 0.10233806231837578
0.38286360189911345 -0.88113633535908564 0.19610487996210357
0.42636850794766235 -0.89122242326384626 0.18053553305857231
0.4246716536709359 -0.8890843679530499 0.22076237053444861
0.49963830742606719 -0.87654956238544768 0.14079562989138736
0.4895500419074964 -0.85925395498676072 0.17834607842938011
0.45162756097838685 -0.86258423772608661 0.15692542381139421
0.45315218881598962 -0.86641246618510381 0.19774308253152348
0.50746650538587035 -0.82105809731810731 0.23172544455873514
0.44405994367780205 -0.85186844947589779 0.27444732323425464
0.48108233508227305 -0.84560176267839859 0.2557959864919469
0.44379770990773237 -0.84993186935911391 0.23353262120464652
0.47450444836344596 -0.83338666354770963 0.21215618745523573
0.51773784573925452 -0.83765202595568988 0.077496581711840914
0.45264130296043242 -0.86361802656592257 0.11761000699671938
0.46058494964881969 -0.87783956999271184 0.040982746257481328
0.47083921992977779 -0.89786200360461554 0.081970647490371362
0.50230718891436454 -0.88067511314578117 0.060866885257513575
0.48606029723442112 -0.85239954300442844 0.097812898640163834
0.33127408532020614 -0.94009171559216176 0.20467991259459881
0.33200360393997114 -0.93417614016099559 0.1226754978838048
0.39536633246252906 -0.90766184916914161 0.16150836441030092
0.36068702851701501 -0.9135196832432505 0.14090542002265374
0.35518659503727668 -0.90255148410742536 0.17875959084970294
0.3333910091163288 -0.94209207332378575 0.1641875821650286
0.16491751369958851 -0.97298363776513141 0.020375503310996114
0.16411092456251047 -0.96786968237875637 0.060782371421570218
0.13315168242770159 -0.98829184966489481 0.041076465908920883
0.23562444404663924 -0.98067445929483843 0.020821567614164833
0.1969666842728946 -0.96222951322586892 -2.8248328823612734e-15
0.2330986698833446 -0.97015866718600186 -0.020600434810176895
0.13182431628953811 -0.97845597858742128 -0.040667265733337142
0.16517541735408681 -0.97415324825468519 -0.061175884372117621
0.16977461050392845 -1.0016348729396112 -0.020974178154206033
0.1997752980289399 -0.97595493253959942 -0.041129358831017836
0.20127964060422007 -0.98550408954923974 -0.12435140623179357
0.26402733659771105 -0.95528070222530947 -0.081044352713764867
0.23149276277932337 -0.96419339966133033 -0.10187036680127065
0.23686634907773996 -0.98608636275773243 -0.062410433838553075
0.20313159343695042 -0.9934944277290384 -0.08349314194570337
0.067133809967015207 -1.0026907067937219 -0.041471514962296133
0.13198230547698783 -0.9796294241191259 -1.8398654188389739e-15
0.067004242290968768 -1.0007848041815544 0.041397864635973988
0.1000422523222645 -0.99308634531566176 0.020605706603222619
0.06681084864645756 -0.99795576516163453 3.0400681586900533e-17
0.10134401406984618 -1.0060122205469764 -0.020873383539645834
0.26658596411136631 -0.96450533746609224 0.081828329949374196
0.20121653746092438 -0.98519697109352977 0.12431346900786082
0.20279564014285606 -0.99071806019016861 0.041748718862159882
0.20297958475183089 -0.99275117381123734 0.083430679090289894
0.23249336879954779 -0.96787935143102033 0.061257306531558336
0.23041745444504538 -0.9597139962334359 0.1013973345317057
0.45693396576834622 -0.87272070250672029 -0.15876947405035272
0.48774371773312797 -0.8560829088864097 -0.17768870168108344
0.49973467336976457 -0.876718649069401 -0.14082282837740553
0.41636282232975702 -0.87168254880969864 -0.2164453721452422
0.42215568002986592 -0.8824169201886678 -0.17875227550855149
0.38287206229288606 -0.88115579454176496 -0.19610921185749269
0.42350231950527079 -0.8821152694552451 -0.099452913210480179
0.40438384389858906 -0.92610543071147144 -0.12396649209078781
0.42277207790586963 -0.88220839822942954 -0.13882543115989066
0.39575765346006181 -0.90855968791305508 -0.16166814702853582
0.33663015627372023 -0.94721731582905389 -0.12437769133188775
0.33095720102955212 -0.93919736293036638 -0.2044873292154111
0.3342844883501398 -0.94461640190061491 -0.16462752275132644
0.35989293816091505 -0.91451140535172992 -0.18112770377449874
0.35852413046659232 -0.90804116399501278 -0.14006011067919005
0.45890876650393386 -0.87464228577370851 -0.040836542545297373
0.45425209926582633 -0.86669215373999586 -0.11802928546166333
0.51450833420120479 -0.83239280654027348 -0.077008761770584674
0.50015061940268413 -0.87711105924956989 -0.10064693226387728
0.48718869618669097 -0.85416650728265398 -0.059033397856844728
0.45625944423075254 -0.87006323567305266 -0.079432907850938012
0.44085420492785776 -0.84574705184697485 -0.27249021670425905
0.51574062100301465 -0.8345341859504426 -0.23553120115320214
0.46122396715771252 -0.88184988718382129 -0.20126266730188933
0.47805888863622881 -0.83962970655257574 -0.21374585884317154
0.44312709790728044 -0.84864774035952484 -0.23317976722225583
0.4871226534708249 -0.85621948042734519 -0.25900715662137247
-4.0093392764140526e-16 -0.95991296369538603 -0.27268715624522405
0.16776069529539672 -0.94815267465233577 -0.31454720585289919
0.13164122177391152 -0.93272687431788215 -0.32292428010104413
0.16592971786128285 -0.9285796642337053 -0.34631445105051178
0.13414505099080484 -0.96765187623250126 -0.25783299006216437
0.1666422407184483 -0.95074843314743984 -0.27708703135946033
0.16613273525382377 -0.95650484705120042 -0.24110864062068876
0.22863913938999653 -0.90913789537611089 -0.31238730369706647
0.2353620294249992 -0.94550043596646438 -0.28599385229963858
0.19670449830301509 -0.92399126783442498 -0.29304481963379198
0.19591947798561418 -0.92936634399128171 -0.25737491327876211
0.26139592869099038 -0.92626277245788369 -0.23002586626604093
0.19987595720278439 -0.96863196321655542 -0.19326940893600453
0.2270025615548325 -0.93121565484266866 -0.20822496783625133
0.201354966667251 -0.96546121309910737 -0.22967456816272475
0.22901130924595076 -0.92963921591177356 -0.24421813149200489
0.26549780341359053 -0.90139879677054602 -0.37250928809869932
0.1963460910647303 -0.91318609406397866 -0.32720617777192085
0.19944690723183556 -0.91021915105146445 -0.40346685968480606
0.19641657014437003 -0.90501165070025236 -0.36216593456964274
0.22565785398277768 -0.87896226495625929 -0.37646436153590346
0.23310852709458588 -0.91738549846959427 -0.35348289463259713
0.066970871090746148 -0.97249204438932146 -0.24882667240697123
0.065800687284991402 -0.94275275166478179 -0.31562707901928294
0.1337348252723613 -0.95613940835050359 -0.29247330998401694
0.099031254818753967 -0.94438826648557517 -0.30251391747853396
0.10130418562704747 -0.97392378875057062 -0.27331242568389219
0.066044395029239186 -0.95267027773097157 -0.28094601354583559
0.13188271333658058 -0.92589881706849053 -0.35884557459542166
-3.3092523127906821e-15 -0.89943585389823932 -0.39643679990695702
0.066602459209030268 -0.90356915157952189 -0.45067095078424063
0.13344252300824735 -0.90834240582016335 -0.42779944211161869
0.065779560502418344 -0.9190042198820968 -0.38051463078830189
0.09966962147020357 -0.91672979733692239 -0.40530114218045948
0.066515057205680961 -0.91584991140775707 -0.41738358491079763
0.097227463846228657 -0.88077070899018539 -0.42703258637606833
-1.7685838926426816e-15 -0.87693853146792644 -0.46141245037818157
0.032517211237444651 -0.86282171698104604 -0.48063941904633728
-3.0889570577593516e-15 -0.85459077605012579 -0.48810411383102864
1.1882324634972592e-15 -0.90602963634449307 -0.43743035098901062
0.032383658868869833 -0.87477558645627795 -0.44824959726492802
0.033253126671004093 -0.91343037714686592 -0.42879255891771656
0.09826590546873297 -0.8767656570204263 -0.46376024954478318
0.066245653106631858 -0.88249752988144026 -0.47914954317640468
0.16405314843713584 -0.8964523785206725 -0.40978963883631941
0.16317187823705775 -0.90558663535947037 -0.37581519080476838
0.13297247975394391 -0.91934716383095183 -0.3940656775518277
0.22822273719124503 -0.87980759672194564 -0.41574876414380874
0.19485373613964393 -0.87502604710907117 -0.4258352156027872
0.13096927240326631 -0.8774729302885047 -0.45165653161432284
0.16699371535484611 -0.89806561613871183 -0.44969139002320169
-1.2020096701862286e-15 -0.93492022517422524 -0.33701037442267101
0.065946364821809211 -0.93308058851017461 -0.34888441607146475
0.099526961090988797 -0.92969226730907206 -0.37261395961122296
0.098854882636134955 -0.9353094659211707 -0.33752499550569243
0.033186385930793455 -0.92382672746730798 -0.39482426784532587
0.033075072019428234 -0.93361368163154701 -0.36130519468577471
-3.6255771213939359e-15 -0.91113854250505744 -0.36449568964954676
0.032720653180374162 -0.94547453690885352 -0.29237136696369997
2.0530354978286646e-15 -0.96196921459324347 -0.30963725091694233
0.033473953562520364 -0.95640204837889031 -0.33244621691067583
3.7381168345608678e-15 -1.0097542843613765 -0.14066709306962524
0.13053336719183642 -0.94999227686137699 -0.21637090284462931
0.13237365996367945 -0.98255552059446083 -0.081829085051726522
0.13479390092363192 -0.99074281252115004 -0.15330013103108922
0.065794244332283647 -0.97805891197267003 -0.10887024405269362
0.066802486490324983 -0.98439798146789026 -0.18012891847022383
0.066156431714020969 -0.97916216478046714 -0.143902185393014
0.10150300968677614 -0.99588753525313001 -0.16817815197694558
0.10146302675639175 -1.0001343856688147 -0.13290752001934916
0.19657925369602233 -0.95762232880919651 -0.15576526263234011
0.23436352964830964 -0.9716962738802315 -0.18001348474224638
0.23537269241609249 -0.98099578856991232 -0.14540401212761431
0.16247102017362114 -0.94582174382584172 -0.20209850705076637
0.16811018077090986 -0.98384486268146731 -0.17405872950743878
0.13165668799723093 -0.96288917564140186 -0.18391877538620505
0.16509896679713781 -0.97576765355676209 -0.1020537686461797
0.13519528113158105 -0.99857886581109856 -0.11868046321598558
0.16824163113225368 -0.98956338159437396 -0.1390605312493351
3.7017753158379005e-15 -1.0168367761525465 -0.070496721451799943
0.032919689039605564 -0.98166356377503006 -0.088593969500753655
3.2570669027409888e-15 -1.0114695776715197 -0.1053843114249861
0.033230526337549367 -0.98736250990093699 -0.12370705828652431
1.6689050372685674e-15 -1.0080830962563672 -0.034901729731207691
0.033779650869790748 -1.0094772987772895 -0.055871476004742439
0.033074183099282214 -0.98986929677811375 -0.020472376156708754
0.099591802996224124 -0.98671427143304202 -0.096025823873434724
0.099254680785750032 -0.98590630360529108 -0.061367012259366284
0.065974659011447723 -0.98309013450719429 -0.074963304880162507
-8.6284586636903671e-16 -0.97414352919853864 -0.20517288502752656
0.033352555240184795 -0.98148970512523326 -0.19314063322659247
0.033960093104520715 -1.0053903582373389 -0.161899565089414
3.1360252621982547e-15 -1.0011165601344456 -0.17495525445416421
0.10100775086944018 -0.9867149057364587 -0.20247673613080944
0.067089952062845501 -0.98144502162233305 -0.21507830084094651
0.098606878114571639 -0.95614039349377189 -0.23120394858812135
4.8726988727411288e-16 -0.97326989873494529 -0.24043805737617488
0.032934157743169934 -0.95422277075081929 -0.25757069460426635
0.03326208077340928 -0.97196226118912721 -0.22656856513445608
0.38019895217584587 -0.87726028649163523 -0.23502833747387791
0.26191113732220633 -0.90868909894401784 -0.29877528948498905
0.32413389986538854 -0.90084437871913159 -0.26913601402496695
0.32404840893812054 -0.8806211604290628 -0.33835803128084652
0.38572680780519958 -0.86932094931365933 -0.30751607857170143
0.35516704929805282 -0.87574548165320365 -0.32323619957726135
0.36124131848539959 -0.90105782755160235 -0.2934687170131437
0.32153774960105469 -0.88373182323761523 -0.30130346014727011
0.29279736315385435 -0.92352075826432511 -0.21531963949552818
0.29778315455233167 -0.94882754631262034 -0.18400139966043855
0.26330626779940686 -0.94282726974483388 -0.19730572786605483
0.35163154555259279 -0.89672343888679651 -0.21736225611600654
0.32100157617287639 -0.90157601383353292 -0.23248371735131654
0.35645365901947551 -0.89941766027270043 -0.2549348070729312
0.26659124587330996 -0.93484486113427656 -0.26936212312543567
0.29041307886176027 -0.89685620907832275 -0.28148874506125565
0.29849672226274804 -0.93172823012913131 -0.25448725974053737
0.32012915952413856 -0.85951299547186522 -0.36821957683741047
0.35490565601544488 -0.86499936892054075 -0.35779553508919809
0.28866122890533336 -0.8618038840496629 -0.38177804999480874
0.26074871498960195 -0.87542736834422075 -0.40039026856946752
0.29080466863007903 -0.88833851503089645 -0.31624796957086848
0.26639783275787876 -0.91440468087353366 -0.33874550841199885
0.29069831024771198 -0.87803527460358377 -0.35017212586901419
0.41285791318650933 -0.84595534062723843 -0.32405487819862594
0.3838725326784545 -0.85484052318523973 -0.34056146626646833
0.38985598965915541 -0.88905770090262304 -0.27586457958081512
0.41570050186943402 -0.8622516871851974 -0.29153821514830963
0.40816178970182904 -0.85686150444760989 -0.25231758166211171
0.47202347686140839 -0.83046718837279698 -0.29173121282060438
0.45118385542940448 -0.8547888199249567 -0.31400369014498064
0.70731010809073891 -0.69896692217237921 0.16181739516263974
0.63512553932259863 -0.75157799766261002 0.020030862665398708
0.65315802854152005 -0.77284119347891977 0.061786256575256632
0.62083377408206131 -0.78095274745557985 0.040542706719184113
0.69600817502235512 -0.73014337458683165 0.020532376874073766
0.66767610881470862 -0.74368992695997205 -1.0344415924486638e-16
0.68619053257762241 -0.71984298474964958 -0.020244866516841865
0.61408723808475119 -0.77246977544998852 -0.040101905495764145
0.63410936303099197 -0.75029695778071848 -0.059988043042872224
0.65197486690493534 -0.77151563678262169 -0.020561470746394115
0.65602675152980894 -0.73071179606372405 -0.039980140276452747
0.65829702254059619 -0.73382409225189338 -0.12036610459678172
0.69847928525822633 -0.69024015334074107 -0.079378648613552802
0.67342267171791648 -0.70665473726898398 -0.09904761660137984
0.6942790027868444 -0.72839949482812427 -0.061157724621007666
0.67269442490471132 -0.74957240932427383 -0.081850090367214884
0.57609238578180244 -0.8198477172566877 -0.040789220543677888
0.63449668784102409 -0.79813208910611577 3.6009215417325301e-15
0.57645834921873995 -0.82036825624242626 0.040814751449852291
0.59400429441663283 -0.79431030152617998 0.020189322053210931
0.57688357036368532 -0.82097419869240862 6.2660066416097518e-16
0.59075297799146798 -0.789962388951578 -0.020078993362791939
0.70151394176840465 -0.6932436037993821 0.079724172424209636
0.65186464498996755 -0.72666011794110652 0.11919582301102764
0.67181755265926368 -0.74830381792543155 0.040939209042448577
0.67587985232859793 -0.75312158248096006 0.082237663028400743
0.70213261174640995 -0.73663946194607643 0.061849998338327168
0.69629523446511532 -0.73065734156444762 0.10241046899291253
0.61240014120272113 -0.7703494021889864 0.080123807179573986
0.61373424342985139 -0.76727114892337911 0.2397738554375341
0.51220055205397097 -0.82868422179378864 0.1542916767447326
0.55463437534465276 -0.78748051212804471 0.19382474868190785
0.56940666094841141 -0.80970459419361462 0.11871624359787809
0.61580786297286505 -0.77228242499964572 0.15970427100212123
0.59729412716638741 -0.79733951291345984 0.14028438068100896
0.59952947873176399 -0.7993997216015899 0.18133015122940724
0.57007389780014062 -0.81003015072653617 0.15880189636540903
0.5622187472635084 -0.79628504640850006 0.27738308468638995
0.52718490821861719 -0.79767337820874606 0.25082261091925229
0.52286501086762815 -0.79056949783749786 0.28888221637654643
0.5037315691116363 -0.81502959716642254 0.27021828918090629
0.57531730738285702 -0.76493414240811608 0.25300298115361153
0.56999812160619545 -0.80831882329240512 0.23985530322744492
0.5940389782940102 -0.79122385889493962 0.22028192316517883
0.52126261824052966 -0.84348088258853093 0.19723755510508229
0.53336855354440238 -0.80794096473841548 0.17407768334350809
0.53124476558160705 -0.80431219193532544 0.21271090090967365
0.56676705225761936 -0.80626512437544706 0.079035449938922572
0.60218627147607928 -0.80532956043803772 0.061397313287446652
0.58557671638469322 -0.78267264595372277 0.098408396009511345
0.55258030690381132 -0.83785510516036588 0.020427130885932458
0.55355611932135962 -0.83925327668732219 0.060030682400083545
0.52252298577006973 -0.84543044545032786 0.039047707211909102
0.55533040014996282 -0.84152325164163733 0.14031822639458677
0.51872943596999699 -0.83928624046999933 0.11677520396527667
0.55452216388449893 -0.8405531659245844 0.10001217895953889
0.64609165525610845 -0.71698248228967465 0.19633412039603534
0.63908834219030419 -0.75529251868623049 0.14038930277514119
0.61800624025431017 -0.77622095319115059 0.12040872863282671
0.63083778241140809 -0.74688472695101804 0.09948961184141504
0.61461725423453117 -0.7696006955994219 0.19947846107561065
0.64574126389483211 -0.76170692232083725 0.18229776547221091
0.64222024388844245 -0.75599684903774045 0.22192482691061069
0.68039503674420443 -0.7141849839441986 0.14048668555231988
0.6725197210049062 -0.70407428347557122 0.17826195004621739
0.64780986115144656 -0.72050410462366465 0.15743958782920839
0.77588025451195486 -0.60940964147940757 0.080275959933033214
0.70155818707194173 -0.69328335161346299 -2.5806873091474664e-15
0.74758732319788335 -0.65929713247492983 -0.040544825436343725
0.77834329054803497 -0.61131973562361064 -1.9900034996963928e-15
0.74972723168083122 -0.66118399975810993 0.040660489906596722
0.78325797090388305 -0.65205731245553733 0.020726594679981614
0.74152090710273399 -0.65394675461955554 -2.1735649552418467e-15
0.75324325477297616 -0.62706925093401367 -0.019933568177353773
0.73520401140855152 -0.68625094923954455 -0.10201738407727327
0.69267880147437499 -0.68450274118175281 -0.11840101995948109
0.70942033126291892 -0.70106554485933859 -0.040246355218140337
0.74248662676268695 -0.6931765136231518 -0.061714203173518452
0.74479864664113138 -0.69539938687994984 -0.020720752977777916
0.77149152626482287 -0.64232242186844701 -0.061250605892750623
0.74022210628596363 -0.65255617805001254 -0.080152926182919804
0.82077693822634368 -0.57314820234430097 0.040715760375753127
0.8071888126276956 -0.59810316022318721 0.020430639599684115
0.79407112833867732 -0.58834714635840701 0.060310523380271784
0.79629116193059002 -0.62542181709410971 0.041119567009759862
0.85107633427319085 -0.55946895469708302 0.020688628879669546
0.81905794787671893 -0.57195141910107139 -1.9636615140296306e-16
0.7793160960972586 -0.61208430482841492 -0.040242281774974832
0.81380318704393062 -0.60300402538193409 -0.020597861634570901
0.74281544099359798 -0.65460293244429002 0.12083644010733618
0.75315237456109496 -0.66395620362237484 0.081553086364065386
0.751946249125926 -0.62605323367746857 0.05970230340625466
0.76053872066399408 -0.63285620472151238 0.10062691145143993
0.72728767960409579 -0.67905159174006646 0.020236937272630789
0.72574042860967203 -0.67754300462126449 0.060321634862235893
0.70857063340453841 -0.70022460028561739 0.04019803329125788
0.72942606797926823 -0.68064961141517955 0.14204843495006766
0.70292147713773268 -0.69464000382141566 0.12015483537629749
0.72725903429889549 -0.67883529722523595 0.10091528841286648
0.51347223796968089 -0.83075529280627214 -0.15467770329873387
0.61323956643058974 -0.77140454849033757 -0.08023281587729536
0.61045043429898982 -0.76556133431138385 -0.15831458830867107
0.56636778535814725 -0.8053840184570521 -0.11808201528633282
0.5641866310873338 -0.80104069355317797 -0.19716004401508599
0.55846447596482007 -0.79353539184285204 -0.15556823537576736
0.58463226896785481 -0.77953501795956626 -0.17682512588781779
0.59380743431790939 -0.79268477975251905 -0.139465292241892
0.6712089407434545 -0.74653172955310398 -0.163126616220821
0.68781320398788537 -0.7219642300714002 -0.14201184523377303
0.62644686638368197 -0.73894871512701732 -0.17685230612899752
0.62013421274893099 -0.77651138935450448 -0.20126968488433844
0.63832892804977592 -0.75574618178328656 -0.1006640070114312
0.61313453912088556 -0.77009986790411944 -0.11945959871367492
0.62753933179324495 -0.74164429521223918 -0.13785183184569419
0.53926888928084438 -0.81743336569383518 -0.097262092304235187
0.51405644021719654 -0.83167631350130811 -0.11571495028048215
0.54585806913581092 -0.82717105049484918 -0.13792246990594964
0.51525409639515052 -0.83359345878323687 -0.038497699653128208
0.55383466002307113 -0.83967555286852791 -0.060060905018272687
0.54159862289896987 -0.82121195870913166 -0.020033170689953909
0.59460269533289167 -0.79473397223601761 -0.099926990493620763
0.60922138459966269 -0.81473266291946844 -0.062107594164425982
0.56568553623435669 -0.80472645696241962 -0.078884612719891722
0.52991883389885364 -0.80230476287484764 -0.21217991559485069
0.54303143517725394 -0.82257620955001742 -0.17722838310098926
0.50869192357182302 -0.82300831190351209 -0.19244556204528157
0.58278193345301854 -0.77623388356696177 -0.21611065647292002
0.5623137871504188 -0.79742045229577818 -0.23662147111422732
0.4968306284430809 -0.80378939321250109 -0.2664901390437231
0.53015004635824758 -0.80215972977463823 -0.25223311482177163
2.114565186099609e-15 -0.97261816023874792 0.27631885591183158
0.26247671088285468 -0.87129855121409872 0.43823580644432292
0.19490592457873848 -0.91554114741913506 0.29036486771315262
0.23170399565287728 -0.93080057545485362 0.2815445552779568
0.23115214549239024 -0.91913288911155511 0.31581959861194642
0.16291836863962511 -0.93798448834646486 0.23643717258799346
0.16576465860013662 -0.94574200881506088 0.27562777743490557
0.13148403582933788 -0.94848269424082099 0.2527256725597673
0.16329931340118067 -0.91385056804613696 0.34082363773073876
0.13279970923113829 -0.94092492756011425 0.32576291342595343
0.16419281900660415 -0.92799002286738941 0.30785905543284842
0.1316318122762633 -0.94112289190808107 0.2878797309387704
0.067112962366439474 -0.96145724364629148 0.32187550878706944
0.067894785536548444 -0.98586928035799348 0.25225883116036069
0.067016828816445911 -0.96668731879140013 0.28507962664973685
0.10031522228172242 -0.96441376481989571 0.27064323215906283
0.10118304875067047 -0.96491098585947432 0.30908707953601222
0.19283895829340311 -0.88013268395494026 0.39015070685881204
0.20082661253434617 -0.93403298717348127 0.33467219291053896
0.26640887875212438 -0.90450019933680337 0.3737911408130265
0.23088473409603594 -0.90863286466757942 0.35010999171291102
0.23234200553434778 -0.90500070369667984 0.38761522327604836
0.19491789254570541 -0.89810778426870053 0.359403138623615
0.19887985739235109 -0.96381381081084339 0.19230537955550844
0.26302944817095436 -0.93206575359764732 0.23146613289757204
0.2017838898332413 -0.95719953450035566 0.26508770529027098
0.2278815366892217 -0.92505259321017241 0.24301339610246855
0.19789468669290758 -0.94887312852714212 0.22572837974936111
0.23215252989093255 -0.95234475199225421 0.21295047312806009
0.26666704743822839 -0.9252327003075218 0.30421407900165337
0.38556534984585183 -0.88957988271195243 0.2382982135092421
0.37711370016289519 -0.82956623673391872 0.36865630079505046
0.37865589711316605 -0.85337713925345493 0.30187640963074147
0.32138118864497051 -0.87337471972341174 0.33557511574553534
0.33227467165790775 -0.92346322089522526 0.27589762934356388
0.32379712219904128 -0.88994079039053486 0.30342036919796611
0.35659918114717004 -0.88947822293962875 0.28969678878525312
0.35492322499608131 -0.87514425021228737 0.32301432210617653
0.43948326583841202 -0.82210130710056173 0.34021853361451632
0.44649817417829574 -0.84591072854827742 0.31074238937289261
0.46606163784701637 -0.82002463840380835 0.28808878387356213
0.47380836833296103 -0.822864302853207 0.32757991548682297
0.40990343840855947 -0.86049980399751136 0.25337999902173264
0.41983257640867594 -0.87082217485028168 0.29443632985760609
0.39100517020779568 -0.89167960396323753 0.27667804531336565
0.41794584639125582 -0.84572521235706999 0.36304551047906036
0.38622116573895771 -0.86007321910158685 0.34264617514691792
0.42066586320018817 -0.86195332557070092 0.33018238200549677
0.3179985606406876 -0.84328484107972013 0.39971434428597857
0.29502547552315117 -0.89110443848482357 0.35538481510202852
0.26153514670225197 -0.897669932451437 0.33254550429426027
0.29593273473545145 -0.9039996038775634 0.32182026243251971
0.25862188463233687 -0.86826753261320622 0.39711497271685958
0.29628658264834162 -0.88456779027023114 0.39186135285175422
0.29099650387386716 -0.85837178462369534 0.41935184990112351
0.35351637469027325 -0.86161448466435975 0.35639598870140476
0.3544436721211805 -0.85294082941489047 0.39176126450254656
0.32256156649643042 -0.86604480926450988 0.37101781593572203
0.29623301873757313 -0.92466285448639485 0.25255771442457214
0.29040357032896497 -0.89682685069260504 0.28147952473001087
0.26762853522999686 -0.93849134804483925 0.27041240635259778
0.35127957835511492 -0.88636624753115023 0.2512334316441161
0.32673875562769866 -0.91769147511039562 0.23663928026328593
0.3557645271573483 -0.90720823587112165 0.21987773443675396
0.25934045754845914 -0.92859213268702978 0.19432898487046482
0.29668139896001566 -0.94533786940816678 0.18333296214969222
0.29839281112128219 -0.94116852718081123 0.21943477845206674
0.13456885485290868 -0.99871233358853806 0.083130496607518034
0.13523159512914565 -0.98410775387182681 0.22416323555477125
-3.1193340167864704e-15 -0.9743210794121393 0.13568635101103152
0.065336460187945075 -0.96282437745347205 0.1761848206516807
0.067004330379921553 -0.99602740236406873 0.11087316563431644
0.13218472644972629 -0.97154291615433597 0.1503291942713943
0.099045548090011329 -0.97629907739159472 0.12973913152349673
0.098802331583604186 -0.96938526749119658 0.16370365601025533
0.06703712414690878 -0.99219000951455782 0.14581696914468131
-1.9144381573869254e-15 -0.96879749878791033 0.20403930335029671
0.033672686823008072 -0.9839534906743026 0.22936331416493866
0.033220393573041476 -0.96247542311565515 0.25980433477867576
-3.426046263518935e-15 -0.95355423682807749 0.23553859459945917
0.098556908691075334 -0.9556569471345524 0.2310867070506793
0.067150936809376283 -0.98233775574076732 0.21527393730993261
0.1015844373156454 -0.99234192356103634 0.20363059346662987
3.4493226896223957e-15 -1.0027193227218292 0.17523751689239941
0.032969531035881523 -0.97613669623827315 0.15719353632326719
0.033261992940878247 -0.9788258565789929 0.19261633260454533
1.1686103190203363e-15 -1.0036776317717799 0.069569397145151521
0.0672347044323022 -1.0018764977422592 0.076395672069674972
0.098717830591657063 -0.98062953073910708 0.06105306873195257
0.098330951339028652 -0.97423489775744798 0.094809778166981329
0.033085905570730149 -0.99020980918927315 0.020478478064953544
0.033671071080725715 -1.0062345527051355 0.055691877050067257
9.8078922447487112e-16 -1.0045036917325072 0.034773815275416557
0.033860264947358581 -1.0060443442579055 0.12605094514113815
1.396816228789816e-15 -1.0018449093441113 0.10437035392045045
0.032914788199797707 -0.98151750524618697 0.088580794228570112
0.16782775930764091 -0.98712933158113303 0.13871837551544808
0.1354137027289245 -1.0001940416522244 0.11887236240763369
0.16737129344112689 -0.98910169715522001 0.10341241135460595
0.1336981945960814 -0.97783844185814717 0.18677433196650642
0.16608207218864637 -0.97197712785158841 0.17195957456069064
0.16786516254393682 -0.97715391200091306 0.20881171623410982
0.22952354355711443 -0.95674371078433385 0.14187359853078477
0.23221097080663355 -0.96278699025328773 0.17835821973148194
0.20045465685166491 -0.97650529813971643 0.15883680228053992
0.12868753123313029 -0.84811940456702595 0.47501249668762568
-3.8678377050854942e-15 -0.89680123616504148 0.39526894945382346
0.13383072648891894 -0.93953340105229832 0.36412016869393404
0.065917416115171185 -0.92092827545513911 0.38131161902292637
0.13134879878835035 -0.89407361774958116 0.42107953530224873
0.065909469542583574 -0.89418106091927496 0.44599024814351662
0.099092658614910151 -0.89767136083222188 0.43522579213656842
0.066019397053449877 -0.90902927744323259 0.41427511452467441
0.098355251668291441 -0.9046375224151636 0.39995439100256053
-3.1926950058751936e-15 -0.92527897776861956 0.33351338162780431
0.032438892045939333 -0.92683753609520247 0.32216815168400847
-3.7625000225244495e-15 -0.93347491134738125 0.30040491144143655
0.032603021694276771 -0.94210830632493203 0.29133294044848029
1.5967033295687342e-15 -0.93607097444395171 0.37452847815818407
0.033402873469244164 -0.94286175594332722 0.36488369469869048
0.03320443666766866 -0.92432872031977709 0.39503890853258161
0.097946549942005412 -0.92674589577533995 0.33444098606115891
0.097196567732381944 -0.90794350565580317 0.36389402731702519
0.065129498422794654 -0.92151585351623611 0.3445603768887745
0.1940909146275428 -0.85729098691001837 0.45569926429395247
0.16689834586674837 -0.89755283231510241 0.44943464318148629
0.16251065482281773 -0.85952253236727505 0.46914095232014019
0.13222772519756823 -0.88591465095355715 0.45600186382256613
0.22510691264333468 -0.85338615080234759 0.44143826656941182
0.1992596256116049 -0.89481613475916133 0.43546627449102793
0.2327116121776025 -0.89707580235762818 0.42389739084527595
0.12957097119530928 -0.89580288455809742 0.38397476136523162
0.16425000304770113 -0.91155336896065231 0.37828732557072903
0.16480487433055144 -0.90055962088711938 0.4116673543071892
-2.4114751538915668e-15 -0.87402047041512188 0.45986896049222342
0.065121317120572189 -0.85126210253062484 0.50123468206572375
0.064847432090261697 -0.86385851610274444 0.4690296053887385
0.09882965737666026 -0.88178964649089553 0.46641680204488783
0.096927048524324697 -0.84850513751070666 0.48738156917887804
0.033374786673223765 -0.91676391728588003 0.43035678697270896
0.033562912607596848 -0.90661349522978585 0.46456520646196409
8.613396006622851e-16 -0.90452023622745603 0.43669765028823448
0.032903564679316807 -0.8559016219697666 0.51640897514734052
-1.4280153484370604e-16 -0.86769290166720836 0.49562637405555071
0.032735058874028507 -0.86859657369986354 0.48385600376744253
0.49427873482769974 -0.79975990257192353 -0.30548109877363033
0.79407520493769757 -0.30330973464005073 -0.49076535897286511
0.58864438503225602 -0.42595053920206155 -0.68919492578079933
0.67541888032888864 -0.57685175305540548 -0.4173667806769184
0.42290689975745527 -0.68431019898504419 -0.58446290806532686
0.57156842055988277 -0.65494927392341307 -0.52003625775917683
0.50359972651520479 -0.5535203293546832 -0.63429344503828111
0.6399855111213425 -0.50812911344284784 -0.55849379097518015
0.58957459836356729 -0.5477344242384069 -0.61543332393193995
0.61155044348542464 -0.58585411653394193 -0.54427661754373524
0.54343438417657863 -0.61060466956847526 -0.58494792790260597
0.56560244532505077 -0.58595039389113612 -0.55302686666449785
0.56927082716111121 -0.58221462252513501 -0.60315845614554098
0.59900306713445128 -0.5653482674117547 -0.57820314970300202
0.58194092572954914 -0.48046784961742189 -0.64465510326190467
0.57225489150044884 -0.4626226042678846 -0.68146215193141713
0.61289777185530758 -0.45510414837681407 -0.66850234574347156
0.52366116957079645 -0.5211664199316558 -0.64671488445944858
0.56011919650098396 -0.51208690216892649 -0.63059017279815266
0.55413330394032168 -0.55898048336079698 -0.63443457364847444
0.62819320418158975 -0.48846949301475268 -0.59183270223733164
0.61223594791446045 -0.52527159779612798 -0.58393162200184312
0.59092380582234261 -0.49763763636002212 -0.6079432401061059
0.61929235019665119 -0.60195360976104118 -0.50692673681138389
0.60865452461440861 -0.64602318047784513 -0.5023644510193449
0.59311771592429707 -0.62187016168229226 -0.53354000444187488
0.67058596579546603 -0.61480517017156611 -0.45652370588060837
